3244.1201,3245.7534,3247.3477,3248.9373,3250.4011,3251.8147,3253.2607,3254.8511,3256.4929,3257.5698,3257.9795,3258.3142,3257.2947,3254.3345,3251.5159,3249.1130,3247.9265,3247.0796,3246.4895,3245.8984,3245.0703,3243.9751,3242.5615,3241.9812,3242.3003,3243.1458,3244.4929,3247.0547,3249.8225,3252.5315,3255.7407,3259.2507,3263.5369,3267.9119,3271.4854,3274.7432,3277.7976,3280.5149,3283.4346,3286.2263,3288.2395,3289.3811,3289.8862,3289.9597,3289.4495,3287.8440,3285.5254,3282.7373,3279.1790,3275.4924,3272.4229,3270.1016,3267.4810,3264.5542,3261.8579,3259.5146,3257.4219,3255.7009,3254.3213,3253.0486,3251.8760,3250.2693,3248.7983,3247.9026,3247.6077,3247.7466,3248.1943,3248.9128,3250.5281,3253.1106,3254.9980,3256.8682,3259.4248,3262.6917,3264.8992,3265.7507,3265.6580,3264.8047,3263.4377,3261.4463,3259.0710,3256.6145,3254.2080,3252.9043,3252.0908,3251.1567,3249.7913,3248.2329,3246.6270,3245.1348,3243.6711,3242.2019,3240.6895,3239.2488,3237.8621,3236.4500,3235.0679,3233.6335,3232.3347,3231.5808,3231.0081,3230.5645,3230.3994,3230.5371,3230.9556,3231.4827,3232.3521,3233.2446,3234.0972,3234.8721,3235.1941,3235.0664,3234.6531,3234.2168,3233.8430,3233.2439,3232.2581,3231.3313,3230.8333,3231.0298,3231.8865,3233.4954,3235.1509,3236.4392,3237.8162,3238.5901,3239.0347,3239.1482,3238.7412,3238.0881,3237.7563,3237.1289,3236.3523,3235.2703,3234.1379,3226.8657,3217.5083,3212.0425,3206.8362,3202.8140,3199.2046,3196.8352,3196.1729,3195.2937,3194.3086,3195.9680,3199.5396,3202.9968,3207.0144,3209.6909,3211.4292,3211.8914,3212.2053,3212.4775,3212.4421,3211.1379,3208.9126,3204.8604,3200.1375,3196.4680,3193.0803,3190.2832,3188.8452,3189.4922,3190.8716,3192.3521,3193.1687,3193.1729,3192.7424,3191.2590,3188.8831,3185.8867,3182.1985,3178.2068,3173.8511,3168.6562,3162.7898,3154.7974,3145.0518,3137.4402,3130.2039,3123.2839,3119.0386,3114.9092,3111.4097,3107.3560,3103.0344,3099.0857,3096.2273,3093.5725,3091.2180,3088.8533,3086.2644,3082.0188,3076.9563,3072.2102,3067.0623,3062.2661,3057.1218,3052.1182,3047.1296,3041.9136,3037.4067,3036.5850,3038.0972,3040.3840,3042.8025,3045.2195,3047.6753,3050.1714,3052.0698,3053.2617,3053.4719,3053.2371,3052.8315,3051.4878,3049.8992,3047.4680,3044.7781,3041.9250,3039.1113,3036.4561,3033.3281,3029.6824,3026.5603,3024.8594,3024.2649,3023.6770,3023.5134,3023.3225,3023.2576,3022.6125,3021.6882,3020.5725,3019.3179,3018.0298,3017.0100,3016.5295,3016.2268,3016.4031,3016.5056,3016.1711,3015.3613,3014.4629,3013.3342,3011.9688,3010.7378,3009.4526,3008.2473,3006.9880,3006.3306,3004.8093,3003.8560,3002.6021,3000.7280,2997.7600,2994.1770,2990.6177,2986.9355,2981.3542,2975.5557,2970.5291,2965.2944,2960.9285,2956.6326,2952.2083,2947.6719,2942.9539,2937.8730,2932.5918,2926.7991,2918.0862,2910.0986,2901.7161,2890.6982,2883.1836,2875.6064,2867.1443,2856.9573,2847.0725,2838.7036,2831.1362,2820.1145,2808.7195,2798.8076,2790.3013,2782.1235,2770.1343,2757.7346,2748.2773,2739.3054,2729.1941,2717.8733,2709.6392,2703.4077,2698.0369,2691.0029,2683.6960
3245.7368,3246.9026,3248.3462,3249.8066,3251.3831,3252.6687,3253.9417,3255.3655,3256.7510,3257.7617,3258.4316,3258.7683,3258.1104,3256.4624,3253.9202,3252.1394,3250.7632,3249.7292,3248.9756,3248.1658,3247.1125,3245.7463,3244.2832,3243.3540,3243.5405,3244.8669,3248.0249,3251.6230,3254.4746,3256.6199,3259.2366,3262.7458,3266.5452,3270.5625,3274.5205,3278.1079,3281.6184,3285.1602,3288.5825,3291.9858,3294.1797,3295.3518,3295.8223,3295.7427,3295.1008,3293.1218,3290.7749,3288.4075,3285.2859,3281.6929,3278.2920,3275.2395,3272.1838,3269.1042,3266.2803,3263.5188,3261.0859,3258.9277,3256.9199,3255.3730,3254.3174,3251.7668,3249.5173,3247.8184,3246.8870,3246.4709,3246.7358,3246.8450,3247.7717,3249.2173,3250.9702,3252.5479,3254.4155,3256.3708,3257.8157,3258.6448,3259.1812,3259.1853,3258.1980,3256.4626,3254.0508,3251.6638,3249.1519,3246.6436,3244.6907,3243.7920,3243.1252,3242.0303,3240.3679,3238.6829,3237.2373,3235.8494,3234.3591,3233.3438,3232.5645,3231.4895,3230.4519,3229.5095,3228.5957,3227.9346,3227.4338,3227.0959,3226.9873,3227.0559,3227.2959,3227.7249,3228.1702,3228.6760,3229.1917,3229.5371,3229.8242,3229.8118,3229.6670,3229.4836,3229.3022,3228.8933,3228.3481,3227.9629,3227.8157,3228.1543,3229.2124,3230.6833,3232.4402,3233.9116,3235.4019,3236.3892,3237.1558,3237.4978,3237.4612,3236.9553,3236.7178,3236.3315,3235.6694,3235.4094,3234.1030,3226.1443,3216.6204,3210.6731,3205.4392,3200.8081,3197.4351,3196.3125,3194.9121,3192.9268,3193.0413,3196.2595,3198.8394,3201.5276,3204.6357,3207.4978,3209.6492,3210.8247,3211.1660,3211.1035,3210.1113,3208.1287,3204.6973,3200.5867,3196.3848,3192.8086,3189.3494,3185.4429,3182.6553,3182.3745,3183.6343,3185.5427,3186.9062,3187.9121,3188.5688,3187.9329,3186.3467,3183.8889,3180.5312,3176.8123,3172.8828,3167.5388,3161.1772,3151.8628,3143.0503,3136.3064,3128.2842,3121.2871,3115.6716,3110.4492,3106.7964,3102.8269,3099.1470,3096.3892,3094.1226,3091.7373,3089.9385,3087.7747,3084.6992,3080.0662,3075.0342,3069.9463,3064.5979,3059.3621,3054.1047,3049.1699,3043.8840,3039.4231,3038.8079,3040.1492,3042.1223,3044.7383,3047.3982,3049.9573,3051.6199,3053.3535,3054.8103,3055.8020,3056.0708,3055.7954,3054.5601,3053.0398,3051.3069,3048.9529,3045.9722,3042.3882,3039.1362,3036.3501,3033.8455,3030.5549,3027.3931,3025.5935,3024.7710,3024.5981,3024.4207,3024.2998,3024.0154,3023.4136,3022.3462,3021.2937,3020.1104,3019.3555,3018.9700,3018.8660,3019.0283,3018.7556,3018.6746,3018.1423,3017.4387,3016.5354,3015.3162,3013.9966,3012.5444,3011.1389,3009.8022,3008.5527,3007.0959,3005.7598,3004.3618,3002.8430,3000.9563,2998.0979,2994.4482,2990.7620,2986.8958,2981.1331,2975.3616,2970.4155,2965.5430,2961.0608,2956.6887,2952.2649,2947.7329,2943.0645,2938.1648,2933.2307,2927.6099,2918.6560,2910.4958,2902.6252,2892.3970,2883.6555,2875.7351,2867.9937,2858.9507,2849.2512,2840.1841,2832.3076,2822.4395,2810.9778,2800.6145,2791.9539,2784.2056,2772.5027,2760.1631,2750.0649,2740.9763,2732.1238,2720.8403,2714.2417,2708.6794,2703.3728,2698.1145,2691.0220
3247.0867,3248.2070,3249.4778,3250.8931,3252.2144,3253.4805,3254.6250,3255.7881,3257.0208,3257.8647,3258.7153,3258.8853,3258.3757,3257.2571,3255.6326,3254.0693,3253.0166,3252.1169,3251.3611,3250.3501,3249.1963,3247.8926,3246.2617,3245.3872,3246.0706,3249.2727,3254.1699,3257.5161,3259.0354,3260.6589,3262.9207,3265.6973,3268.8376,3272.9678,3277.2930,3281.1836,3285.1848,3289.3540,3293.1772,3295.7285,3297.9207,3299.4473,3300.2300,3300.5046,3299.9666,3298.4727,3296.4224,3294.7192,3293.0708,3288.7915,3284.2161,3280.2703,3276.7263,3273.4124,3270.3362,3267.5825,3265.0037,3262.2539,3259.7412,3257.6790,3255.8997,3254.2051,3251.1460,3248.1599,3246.5635,3245.6023,3245.0261,3244.6262,3244.6062,3245.1448,3246.2454,3247.8501,3249.4895,3250.9897,3252.1699,3252.9792,3253.4829,3253.5527,3252.7214,3251.1951,3249.3188,3247.1138,3244.4746,3242.3257,3240.6406,3239.3765,3237.9453,3236.2278,3234.2625,3232.0459,3231.2454,3230.6204,3229.8413,3229.0908,3228.4482,3227.6482,3226.7937,3225.9270,3225.1313,3224.4304,3223.9199,3223.6594,3223.6267,3223.7874,3224.0193,3224.3157,3224.5911,3224.8733,3225.2046,3225.4038,3225.5627,3225.5195,3225.4243,3225.2512,3224.9497,3224.5696,3224.0825,3223.7075,3223.7407,3224.6184,3226.0361,3227.7124,3229.5398,3231.4036,3233.0156,3234.0798,3235.1658,3235.6562,3235.6331,3235.5039,3235.2166,3235.1250,3234.4341,3233.6458,3231.8223,3224.0979,3215.5286,3208.4194,3202.7434,3198.4124,3196.3093,3194.8699,3191.4595,3187.7371,3188.3794,3193.7893,3196.6016,3197.8479,3198.8318,3200.2849,3202.6257,3204.4773,3205.5840,3205.6611,3204.5315,3202.0496,3198.7246,3195.3225,3191.6453,3187.8479,3184.2336,3180.4993,3176.8965,3174.4297,3174.3826,3177.1836,3180.2261,3182.3738,3183.7153,3184.0959,3183.0618,3180.9048,3177.8110,3174.4312,3170.6316,3165.1162,3158.5762,3147.8696,3140.7070,3134.1890,3126.2341,3119.5088,3113.2681,3107.8896,3102.3506,3097.6768,3095.6853,3093.7549,3091.5986,3089.6819,3088.0500,3085.7395,3082.1448,3077.4683,3072.8904,3067.2703,3061.6533,3055.3059,3049.6763,3044.8496,3041.9070,3042.2666,3042.9058,3044.1841,3046.1492,3048.4541,3050.9658,3053.3047,3055.2942,3056.9849,3058.3523,3058.9949,3059.0964,3058.5745,3057.2466,3055.0217,3052.7549,3050.2046,3046.6484,3042.6426,3039.0718,3036.4070,3034.5503,3032.2393,3029.2861,3027.2766,3026.3647,3025.8718,3025.6680,3025.5347,3025.2449,3024.5591,3023.3311,3022.6184,3022.8130,3022.7080,3022.3967,3022.1914,3022.2612,3022.1943,3021.9177,3021.2244,3020.2234,3019.0002,3017.4136,3015.8699,3014.3071,3012.8259,3011.1533,3009.6343,3008.0168,3006.3044,3004.4651,3002.6846,3000.5984,2997.7695,2994.2908,2990.6191,2986.5469,2980.9097,2975.3274,2970.5884,2965.8831,2961.4368,2956.9912,2952.4434,2948.0042,2943.2783,2938.4316,2933.5486,2928.0286,2919.1560,2910.7183,2902.7847,2893.6479,2883.9900,2875.5691,2868.5505,2860.3296,2850.9663,2841.0559,2832.5227,2823.1809,2812.5649,2802.2554,2793.0513,2785.2644,2774.7610,2762.7351,2752.2339,2742.6960,2733.5193,2724.8518,2718.3801,2713.3450,2708.1367,2702.5642,2696.5417
3248.3318,3249.3096,3250.4099,3251.7727,3253.0237,3254.2839,3255.5334,3256.5503,3257.3899,3258.1675,3258.9438,3259.2942,3259.0193,3258.1279,3257.2422,3256.2678,3255.3979,3254.5872,3253.6726,3252.7153,3251.6287,3250.2185,3249.4258,3249.8613,3251.9329,3254.7307,3258.2263,3260.3477,3262.1699,3264.0549,3265.8450,3268.0803,3271.4294,3275.5920,3279.9263,3284.1265,3288.4346,3292.8259,3295.9465,3298.4731,3301.0933,3303.0337,3304.5659,3305.1929,3305.3682,3304.7024,3302.6892,3300.4854,3298.1260,3295.2715,3290.9846,3285.6958,3281.1477,3277.7942,3274.4443,3271.4578,3268.7087,3265.7529,3262.7524,3260.1252,3257.7971,3255.1763,3251.6392,3247.8674,3245.8467,3244.4749,3243.4814,3242.7175,3242.1978,3242.1003,3242.8262,3243.3547,3244.2622,3245.6372,3246.7202,3247.2849,3247.6133,3247.4473,3247.0010,3245.9619,3244.5474,3242.6799,3240.8342,3238.9382,3237.2358,3235.6450,3233.9539,3231.8892,3230.2429,3228.7705,3227.7224,3226.8987,3226.2117,3225.5508,3224.9033,3224.1804,3223.4709,3222.6838,3221.8203,3220.9563,3220.4043,3220.2344,3220.2659,3220.5007,3220.7903,3221.0635,3221.3125,3221.4705,3221.6860,3221.8130,3221.8633,3221.7278,3221.5449,3221.3218,3221.0657,3220.5066,3219.8813,3219.6206,3219.5566,3220.9309,3222.6018,3224.4028,3226.2529,3228.2173,3229.9883,3231.5754,3232.8413,3233.3845,3233.5576,3233.4861,3233.4116,3233.3062,3232.9915,3231.2520,3226.9019,3219.9111,3211.9746,3205.0037,3198.3450,3196.2075,3194.4475,3190.6677,3186.1313,3182.5703,3182.3372,3185.4644,3188.7673,3190.8435,3192.1013,3193.0688,3194.1973,3195.9570,3197.5308,3198.0811,3197.3242,3195.4182,3192.6287,3189.7385,3186.4167,3182.7288,3178.4895,3174.4180,3170.9663,3168.7683,3168.1775,3169.3730,3171.6255,3174.3215,3176.2158,3176.9150,3176.5154,3175.5830,3174.0894,3171.4292,3166.8550,3161.4309,3153.4143,3144.5522,3138.0364,3131.1138,3123.7708,3117.4355,3111.7703,3106.1638,3100.7141,3096.6577,3093.7703,3090.5969,3088.5989,3087.2173,3085.2219,3082.3545,3078.7422,3074.7976,3069.7490,3064.2717,3057.4897,3049.5088,3045.9163,3046.3127,3048.3049,3047.5632,3046.6082,3047.7578,3049.4297,3051.6399,3054.0435,3056.4067,3058.7791,3060.6411,3061.8308,3062.2036,3061.9370,3061.1094,3059.4497,3056.6978,3053.3467,3050.2400,3046.9255,3043.1265,3039.4058,3036.6489,3034.8850,3033.3662,3031.6396,3029.7205,3028.6318,3027.9856,3027.4207,3026.9810,3026.3699,3025.4663,3024.9751,3025.8420,3026.2524,3025.9150,3025.3704,3025.2227,3025.2559,3025.3518,3025.0222,3024.3784,3023.2263,3021.8950,3020.0879,3017.8748,3015.9841,3014.1384,3012.1318,3010.4688,3008.7825,3006.8262,3004.5342,3002.4434,2999.9807,2997.2097,2994.0208,2990.2546,2986.1018,2980.6619,2975.2922,2970.6602,2966.2917,2961.7947,2957.5210,2953.1826,2948.5593,2943.5522,2938.6047,2933.7502,2928.3149,2919.6768,2911.0457,2903.1389,2894.1257,2884.1018,2875.4646,2869.0645,2861.0725,2851.5894,2841.3779,2832.6682,2823.0898,2813.1340,2803.6646,2794.2073,2786.0427,2776.7024,2765.8796,2755.0317,2744.9700,2735.1318,2728.1567,2722.7803,2717.6687,2712.2092,2706.6902,2700.3291
3249.2605,3250.2241,3251.4092,3252.6355,3253.8250,3254.9727,3256.3354,3257.3245,3257.9761,3258.6025,3259.3447,3259.7981,3259.7219,3259.0227,3258.1208,3257.7649,3257.4192,3257.0369,3256.3518,3255.5164,3254.1355,3253.0757,3252.9001,3253.4070,3254.6985,3257.1460,3259.6304,3262.0623,3264.5762,3266.7297,3268.7261,3270.9951,3274.0056,3277.8433,3281.7456,3286.1970,3290.5391,3294.5269,3297.9160,3301.1450,3303.8257,3306.0100,3307.2427,3307.9937,3308.2759,3308.0208,3306.8862,3305.0554,3302.3186,3299.3257,3295.8516,3291.6240,3286.4480,3281.7004,3278.0688,3274.8315,3271.7202,3268.6494,3265.2644,3261.7605,3258.6729,3255.2031,3251.4243,3247.2449,3244.5398,3243.2686,3242.1636,3241.3018,3240.4438,3240.0613,3240.2354,3240.0425,3240.6902,3241.3110,3241.9214,3242.3250,3242.6108,3242.4434,3242.1218,3241.4585,3240.3279,3238.8623,3237.1433,3235.5916,3234.1460,3232.4534,3230.5339,3228.6370,3226.8765,3225.4424,3224.2820,3223.5908,3222.9360,3222.3379,3221.6802,3221.0271,3220.2527,3219.3936,3218.6006,3217.7949,3217.1294,3216.8433,3216.6104,3216.5957,3216.5679,3216.6121,3216.6501,3216.8149,3216.9509,3217.0615,3217.1016,3216.9009,3216.6833,3216.4658,3216.1575,3215.7148,3215.3088,3215.1504,3215.5952,3216.7817,3218.7058,3220.8870,3222.5735,3224.1528,3225.9065,3227.6267,3229.1494,3230.0740,3230.5244,3230.5535,3230.3367,3229.7903,3228.1716,3225.2778,3220.6946,3213.9226,3205.9934,3199.6021,3196.1816,3194.8948,3190.8721,3186.7649,3182.7092,3179.5674,3178.8000,3179.4800,3180.6611,3182.1558,3184.0042,3186.2729,3188.4355,3190.1572,3191.2495,3191.7444,3191.2222,3189.7954,3187.4343,3184.3303,3180.5139,3176.1184,3171.9141,3168.3679,3165.4358,3163.7639,3164.0364,3164.9946,3166.2891,3167.7217,3168.7883,3169.3647,3169.2148,3168.9668,3168.4055,3165.7585,3161.8315,3156.5784,3148.7141,3141.5989,3135.1243,3127.8918,3120.9924,3115.2314,3109.7832,3104.6963,3099.8467,3095.6421,3091.5303,3087.3284,3084.8071,3083.1948,3080.8127,3078.0530,3075.1987,3071.5503,3066.5347,3061.0078,3052.1248,3048.3354,3050.0493,3051.3455,3051.8838,3050.5522,3050.0935,3051.2278,3052.9065,3055.0344,3057.2876,3059.7466,3061.9504,3063.3882,3064.1301,3064.1611,3063.8406,3063.1211,3061.5032,3058.0964,3054.1179,3050.3066,3047.1663,3043.8176,3040.3015,3037.6465,3035.8872,3034.4639,3033.2729,3031.9280,3030.7212,3030.0710,3029.2192,3028.2993,3027.2898,3026.6843,3027.0598,3027.7144,3028.2463,3028.3618,3028.2039,3028.2798,3028.4941,3028.4275,3028.1299,3027.3521,3026.0781,3024.5190,3022.6260,3020.0649,3017.4766,3015.2388,3013.0793,3011.0784,3009.2043,3007.0393,3004.4517,3002.0762,2999.4316,2996.6040,2993.4316,2989.8628,2985.5159,2980.3230,2975.2061,2970.7319,2966.5674,2962.2734,2957.9529,2953.8538,2949.0396,2943.7981,2938.6418,2933.8518,2928.4106,2920.2385,2911.5522,2903.7700,2894.6426,2884.4656,2875.6116,2869.0508,2860.8625,2851.2981,2841.5530,2832.7771,2822.9326,2813.4983,2805.0081,2795.5000,2786.9380,2777.9189,2767.5144,2756.6370,2747.3250,2738.2207,2730.7727,2726.0737,2721.3364,2715.9221,2710.3472,2704.2190
3249.8665,3250.8220,3251.9268,3253.0225,3254.1130,3255.3445,3256.5815,3257.5227,3258.3528,3259.0779,3259.7439,3260.1709,3260.0903,3259.6797,3259.1426,3258.7878,3258.5315,3258.3059,3258.0356,3257.5037,3256.6968,3255.6892,3254.7224,3254.8948,3256.3762,3258.5498,3261.1067,3264.1069,3267.0317,3269.3958,3271.4038,3273.5217,3276.3826,3279.3843,3283.2266,3287.8855,3292.4329,3295.9673,3299.5095,3303.0007,3306.0002,3307.4424,3308.5022,3308.8777,3309.3372,3309.2031,3308.7029,3307.6912,3306.0071,3303.1904,3299.9153,3296.2278,3292.0757,3286.3479,3281.1243,3277.5210,3274.0061,3270.5210,3266.8970,3263.1465,3259.1975,3255.1707,3250.3577,3245.8516,3243.5688,3242.3574,3241.2620,3239.9873,3238.8953,3237.8933,3237.1365,3236.5886,3236.6821,3236.9702,3237.2107,3237.5588,3237.6545,3237.6514,3237.4966,3236.9912,3236.2864,3235.0837,3233.6892,3232.1196,3230.6213,3228.9758,3227.1418,3225.2378,3223.3357,3221.6772,3220.7539,3220.2515,3219.8086,3219.1909,3218.5991,3217.9890,3217.3176,3216.4880,3215.7136,3214.8794,3214.1526,3213.4729,3212.7266,3212.0151,3211.4531,3210.9585,3210.8357,3210.7090,3210.6792,3210.6721,3210.7659,3210.8557,3210.9290,3210.8848,3210.7124,3210.4968,3210.4041,3210.3591,3210.3557,3210.7073,3212.3198,3215.1980,3217.8481,3219.7881,3221.3164,3223.0623,3224.6768,3225.7366,3226.4619,3226.4919,3225.7605,3224.5017,3222.3247,3219.2458,3214.7754,3208.1897,3200.8982,3196.3936,3195.5281,3191.5825,3187.3857,3183.5522,3178.6956,3175.0203,3173.4124,3173.1743,3174.4878,3176.1448,3178.0596,3180.3103,3182.6968,3184.8782,3186.1169,3186.4893,3186.1389,3184.7175,3182.2034,3178.3853,3173.9919,3169.5342,3165.6306,3162.1123,3158.9536,3158.2764,3159.5862,3160.8674,3161.5535,3161.5010,3161.3762,3161.3604,3161.3879,3161.3296,3161.0916,3159.4180,3155.6438,3150.4805,3144.0547,3137.6458,3131.0981,3124.4451,3118.4504,3112.8977,3107.7605,3103.0168,3098.7769,3094.4260,3090.1155,3086.1201,3082.5769,3079.3560,3076.0215,3073.2441,3070.5750,3067.2102,3063.0925,3056.6199,3050.9980,3052.8589,3054.5447,3055.8630,3055.7712,3054.9155,3054.5923,3055.2000,3056.5132,3058.1699,3060.2361,3062.3577,3064.0461,3065.3621,3065.9041,3065.7002,3065.1006,3064.2148,3062.6025,3059.1575,3054.6699,3050.4646,3047.4707,3044.7673,3041.5320,3039.0354,3037.1572,3035.7781,3034.6179,3033.4553,3032.3560,3031.4626,3030.4475,3029.4236,3028.3953,3028.5366,3028.9167,3029.4958,3030.0374,3030.5684,3031.2185,3031.8977,3032.3293,3032.7166,3032.7825,3031.7651,3029.4851,3027.3379,3024.7090,3022.0552,3018.7910,3016.1348,3013.6453,3011.4629,3009.3450,3007.0969,3004.2141,3001.5474,2998.7839,2995.9487,2992.7961,2989.4182,2985.0090,2979.9927,2975.1204,2970.7710,2966.6665,2962.4512,2958.1072,2953.8555,2949.1511,2943.8013,2938.5762,2933.8047,2928.5439,2920.7805,2911.9629,2903.3733,2894.8750,2885.0217,2875.8628,2868.9348,2860.4897,2851.0637,2841.7004,2832.8767,2822.9534,2813.8750,2806.2908,2796.8071,2787.9031,2778.8198,2768.6270,2757.9841,2748.8523,2740.7661,2733.9570,2728.8611,2724.2637,2719.3530,2713.4946,2707.5100
3250.0737,3251.0918,3252.1802,3253.1719,3254.1831,3255.2915,3256.3650,3257.3501,3258.4492,3259.3340,3259.9878,3260.2805,3260.4199,3260.3689,3259.9478,3259.6162,3259.4924,3259.4832,3259.2856,3258.9019,3258.2671,3257.3921,3256.3411,3256.0830,3257.6223,3260.0391,3262.9893,3265.9028,3268.7793,3271.1721,3273.3345,3275.5105,3277.9143,3280.5891,3284.6560,3289.2654,3293.5427,3297.0273,3300.7341,3304.3479,3306.7703,3308.3374,3309.2861,3309.7703,3309.9580,3310.1233,3310.0212,3309.3523,3308.1655,3306.6323,3303.6636,3299.9668,3296.1055,3291.3923,3284.9253,3279.9229,3276.0676,3272.3459,3268.5398,3264.2664,3259.7039,3255.2231,3249.8928,3245.1848,3242.8457,3241.6614,3240.4368,3239.1313,3237.5928,3235.9604,3234.5874,3233.5715,3233.3110,3233.0347,3232.7847,3232.9873,3233.2329,3233.4395,3233.5308,3233.4187,3232.8882,3231.6477,3230.2104,3228.7212,3227.0967,3225.4851,3223.7476,3221.9619,3220.2319,3219.0295,3218.3179,3217.7297,3217.2288,3216.5203,3215.8948,3215.2217,3214.3696,3213.5498,3212.7510,3211.8718,3211.0703,3210.2837,3209.3811,3208.0679,3206.7500,3205.9258,3205.3408,3204.9966,3204.7605,3204.5325,3204.5007,3204.6106,3204.6414,3204.4014,3204.1267,3203.7388,3203.5791,3203.5552,3203.6533,3203.9753,3205.1733,3207.8640,3211.5481,3214.5305,3216.7214,3219.0967,3221.0520,3222.2546,3222.7136,3222.6162,3222.0125,3220.5508,3217.8284,3214.4653,3210.1062,3203.4607,3196.9304,3196.1487,3193.4888,3188.1677,3182.9932,3177.0747,3172.0701,3169.9165,3168.9392,3168.5928,3169.1116,3170.3792,3172.4875,3174.0898,3176.0291,3178.1035,3179.6580,3180.5957,3179.9761,3178.2637,3175.5164,3172.0901,3167.2393,3162.6411,3159.3464,3156.9712,3155.0947,3154.3860,3154.6411,3155.2896,3155.6602,3155.2854,3154.7324,3154.3494,3154.2087,3153.8582,3153.1655,3151.4263,3148.6338,3144.2356,3138.9453,3133.1912,3126.6804,3120.8074,3115.4958,3110.6528,3105.6794,3101.2869,3097.0500,3093.0312,3089.1206,3085.2607,3080.5886,3075.9915,3072.5322,3069.3875,3066.3669,3063.0969,3058.2405,3054.0405,3054.9580,3057.3823,3060.4453,3062.1042,3061.0386,3059.0076,3057.9209,3058.0706,3059.0413,3060.5828,3062.6042,3064.6252,3066.1179,3067.1399,3067.5017,3067.0898,3066.1592,3065.0032,3063.1770,3060.0264,3055.2583,3050.9185,3047.8755,3045.5017,3042.9419,3040.5220,3038.7170,3037.1013,3035.9485,3034.7466,3033.6121,3032.5581,3031.4746,3030.4592,3029.8606,3030.3296,3031.1260,3031.9736,3032.5522,3033.2217,3034.1147,3034.9648,3035.8135,3036.7700,3037.5183,3037.0889,3034.2114,3030.2031,3026.7886,3023.5256,3020.3027,3016.9077,3014.0747,3011.6687,3009.5508,3007.1292,3004.0164,3001.0532,2998.2236,2995.2700,2991.9856,2988.4968,2984.1931,2979.6628,2975.0732,2970.5762,2966.3232,2962.0884,2957.8706,2953.6062,2948.8484,2943.6343,2938.5374,2933.6641,2928.5151,2921.1287,2912.3840,2903.0371,2895.0378,2885.5728,2876.1951,2868.8406,2860.1086,2850.8596,2841.8933,2833.1348,2823.7024,2814.7170,2807.3589,2798.2388,2788.9114,2779.6248,2769.7273,2759.2976,2749.7844,2742.1912,2736.6125,2731.3872,2726.6057,2721.7410,2716.2659,2710.3342
3249.9646,3250.9961,3252.1978,3253.2532,3254.2974,3255.2695,3256.2781,3257.3162,3258.2329,3259.0994,3259.8577,3260.4380,3260.7703,3260.9424,3260.9033,3260.8193,3260.8801,3260.8494,3260.7114,3260.4021,3259.9285,3259.2815,3258.2393,3258.0823,3259.5042,3262.1089,3264.9253,3267.5737,3270.0959,3272.4990,3274.8040,3277.0625,3279.3054,3282.0930,3286.0667,3290.4839,3294.2312,3297.5930,3301.2671,3304.4644,3306.6431,3308.3301,3309.6875,3310.3286,3310.5151,3310.7432,3310.7715,3310.6748,3309.8442,3308.4194,3306.3943,3302.9150,3298.8479,3294.9309,3288.7866,3282.1050,3277.8818,3274.0696,3270.1123,3265.4966,3260.3506,3255.2661,3249.6626,3244.6306,3242.4294,3240.7190,3239.4277,3238.0149,3236.5547,3234.9626,3233.3262,3231.9202,3231.1782,3230.7087,3230.4563,3230.2839,3230.2454,3230.1526,3230.0801,3229.8904,3229.4150,3228.2905,3226.9668,3225.4333,3223.8433,3222.2554,3220.6472,3219.4802,3218.3867,3217.3696,3216.4753,3215.7253,3214.9175,3214.1223,3213.3242,3212.5042,3211.6558,3210.8267,3209.9683,3209.0471,3208.0408,3206.9016,3205.6204,3204.1060,3202.5549,3201.0774,3199.8809,3199.0552,3198.6887,3198.3230,3197.8867,3197.5503,3197.0925,3196.2520,3195.1653,3194.0103,3193.3870,3192.8323,3193.7910,3196.4980,3198.5127,3202.2476,3206.4387,3209.9290,3212.3564,3214.3047,3215.9841,3217.3750,3218.2280,3217.7056,3216.3423,3214.5444,3212.2393,3209.5750,3203.6587,3197.2332,3196.0383,3194.5007,3189.3130,3183.6343,3176.6094,3170.6973,3167.7725,3166.0312,3164.9858,3164.4656,3164.5725,3165.3584,3166.2192,3167.3689,3168.5955,3169.7573,3170.7610,3171.1006,3171.3127,3170.1770,3167.9343,3163.0244,3158.9824,3156.5159,3154.3950,3152.3557,3150.6895,3149.4043,3148.5076,3148.4766,3148.6689,3148.2942,3147.8745,3147.4651,3146.8962,3146.3347,3145.1492,3143.1509,3140.1760,3136.8369,3132.8057,3127.4080,3121.6882,3116.6648,3111.7820,3107.3252,3102.8372,3098.7327,3095.1587,3091.3818,3088.1057,3083.5354,3077.7405,3072.9814,3069.3113,3065.7944,3062.6292,3058.4988,3056.7661,3057.6414,3059.4045,3061.8098,3063.7390,3064.3091,3062.2061,3059.9895,3059.6558,3060.3179,3061.2942,3062.8713,3065.1130,3067.0542,3068.6609,3069.5549,3069.7173,3068.9919,3067.6045,3065.9490,3063.5117,3060.1089,3055.6299,3051.4104,3048.3638,3046.3015,3044.2864,3041.9160,3040.1670,3038.7053,3037.3870,3036.1531,3034.9226,3033.6079,3032.4895,3031.5659,3031.7854,3032.6973,3033.9412,3034.5151,3034.9478,3035.4609,3036.3911,3037.5144,3038.1379,3038.5537,3038.6418,3038.1934,3036.4888,3032.2517,3028.1597,3024.5767,3021.1975,3017.5247,3014.4832,3011.9150,3009.4307,3006.8718,3003.8645,3000.7908,2997.6592,2994.4919,2991.0205,2987.3115,2983.1792,2978.8950,2974.5227,2970.0828,2965.9067,2961.6357,2957.4219,2953.0010,2948.3481,2943.3616,2938.3958,2933.4309,2928.1353,2921.3232,2912.9746,2902.6758,2894.7878,2885.8518,2876.5298,2868.3794,2859.9585,2850.9971,2842.0842,2833.8689,2824.7498,2815.6155,2808.4033,2799.5879,2790.0388,2780.5691,2770.7156,2760.0588,2750.9509,2743.7559,2738.6873,2733.6787,2728.6443,2723.8389,2718.7656,2712.6223
3249.5625,3251.0400,3252.4912,3253.6978,3254.5352,3255.4609,3256.5042,3257.4712,3258.3516,3259.1987,3260.0117,3260.5737,3261.0591,3261.4380,3261.7336,3262.0149,3262.1875,3262.2498,3262.0359,3262.0283,3261.8342,3261.3413,3261.0117,3262.0002,3263.2856,3265.0837,3266.7065,3268.8987,3271.3872,3273.7954,3276.3115,3278.6487,3280.9932,3283.9543,3287.7097,3291.5732,3294.9338,3297.9265,3301.1584,3303.8945,3306.1768,3307.8750,3309.5676,3310.3318,3310.9001,3311.2412,3311.3821,3311.2712,3310.8982,3309.5188,3307.3926,3304.3967,3300.8345,3297.0461,3292.4731,3285.3196,3279.9121,3276.0583,3271.6860,3266.9431,3261.1040,3255.4368,3249.3188,3244.1958,3242.1609,3240.5083,3238.9609,3237.5215,3236.2090,3234.7275,3233.1106,3231.6685,3230.5996,3229.6890,3229.0618,3228.5991,3228.1121,3227.6138,3227.0637,3226.4451,3225.8662,3224.7981,3223.6379,3222.2776,3220.7495,3219.6792,3218.7983,3217.8237,3216.7959,3215.9226,3214.8728,3213.9121,3212.9978,3212.0745,3211.0896,3210.1851,3209.1357,3208.1479,3206.9873,3205.7251,3204.4497,3202.9678,3201.3389,3199.4131,3197.7261,3196.2708,3194.5823,3193.0789,3191.6047,3190.1494,3188.3699,3187.6025,3187.7524,3187.9038,3188.1326,3188.4185,3188.7156,3189.2385,3190.0332,3191.5085,3193.3069,3195.5369,3199.9236,3204.2124,3207.3713,3208.9790,3209.2268,3208.9570,3208.4885,3207.6736,3206.1384,3204.4551,3201.4810,3196.5940,3195.7073,3195.7573,3193.0632,3188.5007,3184.0317,3176.5559,3170.1621,3166.4700,3163.6514,3161.8613,3160.7939,3160.1726,3159.9158,3159.9026,3159.8994,3160.0864,3160.3540,3160.8694,3161.6658,3162.4080,3162.8748,3162.6565,3161.2036,3157.3086,3154.2153,3151.9761,3149.9304,3147.7263,3145.9907,3144.6213,3143.4604,3142.9360,3142.4624,3141.7100,3140.7378,3139.7539,3138.5491,3137.1980,3135.4673,3133.8394,3131.5400,3128.9849,3125.7402,3121.5544,3116.4734,3111.8787,3107.7092,3103.3091,3099.3323,3095.9768,3092.9072,3089.9648,3086.7273,3080.8801,3074.5645,3070.1858,3066.0310,3061.9587,3060.5300,3061.5769,3062.0754,3062.3809,3063.7515,3065.5435,3066.5872,3065.9651,3063.9380,3062.3235,3062.2742,3063.1045,3064.3923,3066.2031,3068.2119,3070.1912,3071.3865,3071.9595,3071.9329,3071.0791,3069.4229,3066.7827,3063.7793,3060.2288,3055.8381,3051.6875,3048.6580,3046.7949,3045.2327,3043.3748,3041.6370,3040.2400,3038.8513,3037.5142,3036.0408,3034.6487,3033.4224,3033.1768,3034.1465,3035.5559,3037.0994,3037.4543,3037.1780,3037.6775,3038.0005,3038.7937,3039.3784,3039.5820,3039.3623,3038.5911,3036.9077,3033.1821,3029.0386,3025.1331,3021.5652,3018.0403,3014.4736,3011.6616,3009.2400,3006.4807,3003.4041,3000.4487,2997.0127,2993.4670,2989.9299,2986.1477,2981.9756,2977.8604,2973.6008,2969.4822,2965.4670,2961.1328,2956.7966,2952.4539,2947.7991,2943.0613,2938.2334,2933.0867,2927.7573,2921.1851,2913.1968,2902.2996,2894.2981,2885.7058,2876.7124,2867.6257,2859.6980,2851.3076,2842.2593,2834.4106,2825.8042,2816.6045,2808.9646,2800.4097,2790.8979,2781.2937,2771.4956,2760.8162,2752.7444,2746.9626,2741.1023,2735.4065,2730.2656,2725.4402,2720.3540,2714.3542
3249.2827,3251.1399,3252.8237,3253.9976,3254.9214,3255.8982,3256.9023,3257.7490,3258.5884,3259.4614,3260.2510,3260.9619,3261.5020,3262.0752,3262.5808,3263.0330,3263.3481,3263.6084,3263.7141,3263.6145,3263.4880,3263.5667,3264.2310,3264.9563,3265.9119,3266.8589,3268.1306,3270.1755,3272.4734,3275.0085,3277.7393,3280.2847,3282.8789,3285.6143,3288.9482,3292.3181,3295.3489,3298.1785,3301.0066,3303.5176,3305.8579,3307.5657,3309.1497,3310.2847,3311.0938,3311.4753,3311.7805,3311.8530,3311.4138,3310.2471,3308.1292,3305.5359,3302.3289,3298.8411,3294.8464,3289.1885,3283.2749,3278.4751,3273.5452,3268.4697,3261.9883,3255.6426,3249.2488,3244.1184,3242.2146,3240.4504,3238.8416,3237.3440,3235.9587,3234.4324,3232.7930,3231.4836,3230.2664,3229.2515,3228.2485,3227.4883,3226.6172,3225.5964,3224.6184,3223.7266,3223.0317,3222.0544,3220.7544,3219.8340,3219.0977,3218.2651,3217.3945,3216.4355,3215.5930,3214.6279,3213.5686,3212.4983,3211.2302,3210.1528,3209.5354,3208.9065,3208.3381,3207.2742,3205.9187,3204.6189,3203.4292,3202.1096,3200.8950,3199.6809,3198.3755,3196.7371,3195.6362,3193.8926,3191.6729,3189.2542,3186.8628,3185.1499,3184.7051,3184.8257,3185.0547,3185.2244,3185.6343,3186.3701,3187.3320,3188.6765,3190.3613,3192.3044,3194.4094,3196.7188,3197.9426,3199.0325,3199.2637,3198.4221,3196.6870,3195.2993,3195.8889,3195.6013,3195.3474,3194.6033,3192.5862,3189.3701,3184.9263,3179.9568,3173.5520,3168.7368,3164.9963,3161.6240,3158.9648,3157.5906,3156.6497,3156.0137,3155.4873,3155.2480,3154.9558,3154.8201,3154.7791,3154.8782,3155.1094,3155.4358,3155.7612,3155.7473,3154.9282,3152.5728,3150.2192,3147.8716,3145.5193,3143.3030,3141.4456,3139.9578,3138.6934,3137.5793,3136.2712,3134.9961,3133.8521,3132.6975,3131.3975,3129.9646,3128.3596,3126.5273,3124.2441,3121.4961,3118.1643,3114.0559,3110.2236,3106.2681,3102.4617,3098.8340,3095.8152,3093.1687,3090.6477,3088.2793,3084.4653,3076.9080,3071.5522,3067.4922,3065.3489,3065.5842,3066.2749,3067.1829,3068.0769,3069.1992,3070.6655,3072.1533,3072.2610,3070.1975,3068.0105,3066.4773,3066.4563,3067.0691,3068.4316,3070.0037,3072.0742,3073.7395,3074.3169,3074.5435,3074.0500,3072.7947,3070.4817,3066.9514,3063.7761,3060.3152,3056.1978,3051.8960,3048.9243,3047.4451,3045.9407,3044.4612,3042.9993,3041.5022,3040.1021,3038.6223,3037.1240,3035.7207,3034.7346,3035.7207,3037.2104,3037.8423,3038.5713,3038.7805,3038.8606,3039.3635,3039.6755,3040.1458,3040.5056,3040.4385,3040.0435,3038.8037,3036.6826,3033.2053,3029.4392,3025.7622,3021.8350,3017.7861,3014.0784,3010.9851,3008.4963,3005.5366,3002.4805,2999.6868,2995.9651,2992.3606,2988.8413,2984.7930,2980.7214,2976.8494,2972.5906,2968.3762,2964.5764,2960.3035,2955.7061,2951.3958,2946.7800,2942.1711,2937.4651,2932.4460,2927.4075,2920.6433,2912.3328,2901.4910,2893.5896,2884.8298,2875.5840,2866.7019,2859.4746,2851.5071,2841.9775,2834.7061,2826.7827,2817.5212,2809.6096,2800.8232,2791.1589,2781.7029,2770.9714,2762.3005,2755.5222,2748.7900,2742.6343,2737.1370,2731.8645,2726.9377,2721.7563,2715.8467
3249.1072,3251.3376,3253.1240,3254.3645,3255.5300,3256.5449,3257.4275,3258.2026,3258.9868,3259.8037,3260.5503,3261.3467,3262.0164,3262.6924,3263.3438,3263.8948,3264.4675,3264.8955,3265.1912,3265.2363,3265.1489,3265.4844,3265.8679,3266.3208,3267.0325,3267.8579,3269.1951,3271.3879,3273.7588,3276.3474,3279.0964,3281.6230,3284.1411,3286.8311,3289.8569,3292.8054,3295.5378,3298.1570,3300.8633,3303.2188,3305.5264,3307.2358,3308.8093,3310.1296,3311.1802,3311.8616,3312.3186,3312.4062,3312.0798,3311.0991,3309.1589,3306.9084,3304.0737,3300.6643,3296.5564,3291.7910,3286.2336,3281.1243,3275.5383,3269.7896,3262.8401,3255.9387,3249.4766,3244.4517,3242.5857,3240.6941,3239.0872,3237.4578,3235.7827,3234.1584,3232.4941,3231.1980,3229.9377,3228.8428,3227.9019,3226.8647,3225.6306,3224.4087,3223.1804,3222.1106,3221.0881,3219.9326,3219.2937,3218.7690,3218.0090,3217.2119,3216.4209,3215.6179,3214.7327,3213.7185,3212.4275,3211.6140,3211.2075,3210.8528,3210.5518,3209.9570,3209.6641,3209.2603,3208.7834,3208.2083,3207.5347,3206.5256,3205.0867,3203.6765,3202.0913,3200.4822,3199.1309,3197.3230,3195.1287,3191.6152,3188.0330,3185.1389,3181.6804,3179.3079,3180.1367,3180.7278,3181.7715,3183.2595,3184.3389,3185.5134,3186.7429,3188.2859,3190.4380,3192.9905,3195.3003,3195.8394,3195.8599,3195.6938,3195.2686,3194.4146,3192.7351,3190.8599,3188.7661,3186.4250,3184.0132,3180.7522,3175.4954,3170.3779,3166.9417,3163.6250,3160.4548,3157.5508,3155.5435,3154.0461,3152.8093,3151.8977,3151.2351,3150.7705,3150.4407,3150.1965,3149.8994,3149.6782,3149.5007,3149.4380,3149.2939,3149.0579,3148.6179,3147.7700,3145.4546,3142.7080,3140.1636,3138.0957,3136.5295,3135.1167,3133.9314,3132.7158,3131.3384,3129.9609,3128.4531,3126.9287,3125.4683,3123.8506,3121.9224,3119.6182,3116.7964,3113.6067,3109.8979,3106.2896,3102.8328,3099.9866,3097.0081,3094.1870,3091.8962,3089.9851,3088.0576,3085.6084,3079.6589,3073.0193,3071.1484,3072.0461,3072.6660,3072.4138,3072.5298,3072.9724,3074.0750,3075.1555,3076.0930,3076.5378,3075.6340,3073.2126,3070.8853,3070.2690,3070.2378,3070.8179,3071.8062,3073.5156,3074.8391,3075.8425,3076.4341,3076.1655,3075.4609,3074.5396,3071.8389,3067.7874,3063.9993,3060.4587,3057.0017,3053.0303,3049.9907,3048.3784,3047.0667,3045.6497,3044.2671,3042.8777,3041.2700,3039.8152,3038.2659,3036.8540,3036.2954,3037.7405,3038.6545,3039.2734,3039.7190,3040.1401,3040.4895,3040.8625,3041.0850,3041.2163,3041.1001,3040.7886,3040.2253,3038.5864,3036.1509,3032.9546,3029.5068,3025.9614,3021.7979,3017.1150,3012.9919,3009.5852,3006.6960,3003.4907,3000.2886,2997.6033,2994.3672,2991.0513,2987.4785,2983.1565,2979.0151,2975.0112,2970.9507,2966.8425,2962.7727,2958.6089,2954.3254,2949.7942,2945.1028,2940.4509,2935.8799,2931.2415,2925.8843,2919.2627,2910.1990,2899.8777,2891.8708,2883.1624,2874.1729,2865.8022,2858.3608,2850.4165,2841.4189,2833.6917,2826.2437,2818.2417,2810.0078,2800.8186,2791.0530,2781.9070,2770.2227,2763.3574,2757.4954,2750.3879,2743.9224,2738.6504,2733.4983,2728.4368,2723.1658,2717.2114
3249.3442,3251.5640,3253.4749,3254.8325,3256.0496,3257.0627,3257.8630,3258.6833,3259.4326,3260.1665,3260.9629,3261.6421,3262.3777,3263.0723,3263.9707,3264.7131,3265.4150,3265.9297,3266.3298,3266.7239,3266.7578,3267.0894,3267.1311,3267.1953,3267.7957,3268.6155,3270.4023,3272.4912,3275.1145,3277.7043,3280.3303,3282.7366,3284.9861,3287.6157,3290.3020,3292.9253,3295.5088,3298.0334,3300.5337,3302.9417,3304.9932,3306.7266,3308.4170,3309.9849,3311.2368,3312.3433,3313.0398,3313.2288,3312.9570,3312.3591,3310.4917,3308.5229,3306.2883,3302.6685,3298.2761,3293.5417,3288.3352,3282.9438,3277.1699,3271.2397,3264.0999,3256.5742,3250.5774,3245.5928,3242.9780,3241.2637,3239.5752,3237.4971,3235.7363,3234.1472,3232.3694,3231.1230,3229.8503,3228.6787,3227.6016,3226.5994,3225.2546,3223.8015,3222.4353,3221.1328,3219.9736,3219.2202,3218.5125,3217.9919,3217.3376,3216.6177,3215.8677,3215.1138,3214.0603,3213.1736,3212.8159,3212.6782,3212.2520,3212.0645,3211.8174,3211.6458,3211.5771,3211.1218,3211.0234,3210.7192,3210.2668,3209.6765,3208.9648,3208.1775,3206.8403,3204.9211,3202.6538,3200.3357,3198.0593,3195.0352,3189.7964,3186.1204,3182.8545,3176.9604,3172.8479,3173.9604,3176.0168,3177.8848,3179.4761,3181.0164,3182.5837,3183.9880,3185.3667,3187.0710,3188.8718,3190.2397,3190.5786,3190.2209,3189.2461,3187.5981,3185.3013,3183.0161,3180.8804,3178.4551,3175.8008,3172.0745,3168.5693,3165.5366,3162.6069,3159.6194,3156.6599,3154.2244,3152.0391,3150.3074,3148.9111,3147.7539,3146.8408,3146.4253,3145.9934,3145.5171,3145.0422,3144.4041,3143.8826,3143.4304,3142.9492,3142.4534,3141.7607,3140.4827,3138.5862,3136.4487,3134.5095,3133.0986,3132.0803,3130.9492,3129.8074,3128.4473,3126.9688,3125.3689,3123.5002,3120.9890,3118.6555,3116.5125,3114.4888,3111.9617,3108.8962,3105.2957,3101.7373,3098.2461,3095.5664,3093.0818,3090.6624,3088.6711,3086.9968,3085.8191,3083.3035,3079.4106,3075.7781,3076.1870,3077.7842,3078.7529,3079.0908,3079.0005,3079.0552,3079.2600,3079.7119,3079.9133,3079.5767,3078.7205,3076.8237,3074.6736,3073.0007,3072.5015,3072.7737,3073.3613,3074.3962,3075.5476,3076.6240,3077.2852,3077.4873,3076.8679,3076.3928,3075.1128,3072.6421,3068.3596,3064.1367,3060.6536,3057.8108,3054.6987,3051.9534,3049.9143,3048.4680,3047.0762,3045.5325,3043.9812,3042.4336,3041.0308,3039.6470,3038.3220,3037.6638,3038.6763,3039.5164,3040.0986,3040.6204,3041.0398,3041.5410,3041.6313,3041.6118,3041.3140,3040.8687,3040.3992,3039.0940,3038.0000,3035.8396,3032.5898,3029.3120,3025.8308,3021.3992,3016.3755,3011.7449,3007.8354,3004.2168,3000.9497,2998.0601,2995.3560,2992.2546,2989.1711,2985.2952,2980.9224,2976.8696,2972.8938,2968.7512,2964.7732,2960.7314,2956.6143,2952.3901,2947.7651,2942.9690,2938.3081,2933.8457,2929.4443,2923.8132,2916.7036,2907.5303,2898.1487,2889.5750,2880.6355,2872.0955,2863.7278,2855.5513,2848.3293,2840.5635,2830.7803,2824.2163,2817.8235,2809.7717,2800.0583,2789.8381,2781.3921,2771.1504,2764.3027,2758.0103,2751.6208,2745.3071,2740.1614,2734.9558,2729.7515,2724.6873,2718.8691
3249.6182,3251.8311,3253.5881,3255.0979,3256.3938,3257.3999,3258.2478,3259.1101,3259.8909,3260.4355,3261.1506,3261.9507,3262.7791,3263.6433,3264.5432,3265.3459,3266.1252,3266.7756,3267.2944,3267.7952,3268.3250,3268.6685,3268.6868,3268.5332,3268.7297,3269.5486,3271.3115,3273.6323,3276.2830,3278.8052,3281.1970,3283.4492,3285.6887,3288.1638,3290.5098,3292.8845,3295.3896,3297.7898,3300.1941,3302.4395,3304.4653,3306.3008,3307.9644,3309.6077,3311.2896,3312.7324,3313.7107,3314.3210,3314.4214,3313.7305,3312.2361,3310.1316,3307.8220,3304.8103,3300.1643,3295.2444,3289.9963,3284.3655,3278.6960,3272.6980,3265.7915,3257.8872,3252.2891,3247.1831,3243.9438,3242.0393,3240.1028,3238.0757,3236.0935,3234.1370,3232.3306,3231.1047,3230.0376,3228.9084,3227.7383,3226.5193,3224.9905,3223.5654,3222.2573,3220.9553,3219.8328,3218.9348,3218.1694,3217.7041,3217.0803,3216.3806,3215.5559,3214.6780,3214.2532,3214.1182,3213.9878,3213.9028,3213.9036,3213.7903,3213.8079,3213.7021,3213.7979,3213.7695,3213.2817,3213.1270,3212.6682,3212.3872,3211.6504,3210.7554,3209.7732,3208.6702,3206.3237,3203.4060,3200.0383,3196.7668,3191.8591,3186.9531,3184.3801,3178.5017,3172.4185,3168.9075,3170.1914,3172.0312,3173.5950,3175.1194,3176.5818,3177.9124,3179.2405,3180.6387,3181.6953,3182.5728,3183.0542,3182.7378,3182.0496,3180.5476,3178.1660,3175.7378,3173.2310,3171.0488,3169.0356,3166.8293,3164.1860,3161.6243,3158.7214,3155.6755,3152.7612,3150.2991,3148.3611,3146.7075,3145.3977,3144.3157,3143.3713,3142.6997,3141.9343,3140.8623,3139.7676,3138.6548,3137.6499,3136.8491,3136.0283,3135.0886,3134.4888,3133.8972,3132.9128,3131.7368,3130.5330,3129.3374,3128.2749,3127.2041,3126.1152,3124.7766,3123.0303,3119.3948,3114.4626,3111.3284,3109.1804,3107.1194,3104.8674,3102.3252,3099.0447,3096.4805,3094.3062,3092.0081,3089.6226,3086.9028,3085.1960,3084.0364,3082.4836,3081.0635,3080.5002,3080.9409,3082.3623,3083.8413,3084.8667,3085.1360,3085.3809,3085.5857,3085.7673,3085.9294,3085.5813,3084.8965,3083.8765,3082.3481,3079.8289,3077.3269,3075.8523,3075.3047,3075.3953,3075.7717,3076.4717,3077.5942,3078.1638,3078.5608,3078.2576,3077.4233,3076.3645,3075.0723,3072.7246,3068.8928,3064.7681,3061.6274,3058.8647,3056.3093,3053.7554,3051.8069,3050.2666,3048.6440,3046.9231,3045.2253,3043.7756,3042.1665,3040.8994,3039.7087,3039.2188,3039.5376,3040.0349,3040.9653,3041.5540,3042.0232,3042.4353,3042.5879,3042.4543,3041.9370,3041.2742,3040.4634,3039.4517,3037.9846,3035.6343,3032.2192,3028.7109,3024.9856,3020.6836,3015.7864,3011.0620,3006.2920,3001.8879,2998.7195,2996.0488,2993.0850,2989.8379,2986.3987,2982.4312,2978.0649,2974.1897,2970.2881,2966.1165,2962.1006,2958.1257,2954.1951,2949.8760,2944.8743,2940.3044,2935.8232,2931.4995,2927.0212,2920.4758,2913.2209,2904.2446,2895.4985,2886.6807,2877.6833,2869.5632,2860.8967,2852.3540,2845.5759,2836.7292,2827.6643,2822.2295,2816.1428,2807.7063,2797.6978,2788.7615,2781.0107,2773.4370,2766.7434,2759.2524,2753.4080,2748.0879,2742.7095,2737.1492,2731.2920,2726.7834,2721.2690
3250.1587,3252.2576,3253.9126,3255.2729,3256.5586,3257.6890,3258.5530,3259.3032,3260.0774,3260.8745,3261.6453,3262.4426,3263.4192,3264.3005,3265.1687,3265.9497,3266.7388,3267.4980,3268.1174,3268.7275,3269.4321,3270.0342,3270.3206,3270.3171,3270.4348,3271.2263,3272.7783,3275.3457,3277.5347,3279.7415,3281.9023,3284.0349,3286.1204,3288.4304,3290.6074,3292.9070,3295.1616,3297.5144,3299.8438,3301.9993,3303.9087,3305.7107,3307.5605,3309.4407,3311.2161,3313.0701,3314.5371,3315.4624,3315.7769,3315.1641,3313.7622,3311.7708,3309.2979,3306.3359,3301.9160,3296.5991,3291.1882,3285.7710,3280.0989,3274.0984,3267.6189,3260.5339,3254.5828,3249.3992,3245.2935,3243.0879,3241.0220,3239.0281,3236.6702,3234.6604,3232.6753,3231.4519,3230.2417,3228.9910,3227.6807,3226.4509,3225.1587,3223.8367,3222.5410,3221.2373,3220.0593,3219.1218,3218.2488,3217.7913,3217.0938,3216.3062,3215.7061,3215.4470,3215.2949,3215.2180,3215.2520,3215.4163,3215.7317,3216.0679,3216.5151,3216.7200,3216.8313,3216.6465,3216.4460,3216.1375,3215.5801,3214.8677,3214.1389,3212.9785,3211.8162,3210.3135,3208.8984,3206.4211,3202.1389,3197.9707,3193.1494,3186.9253,3184.7720,3180.1770,3175.0210,3169.8347,3165.5542,3166.5364,3167.8433,3169.1575,3170.2437,3171.1514,3172.2637,3173.0720,3173.8352,3174.5305,3174.8201,3174.5835,3173.7280,3172.4468,3170.7275,3169.0408,3167.3638,3165.7588,3164.1021,3162.3921,3160.2097,3157.4697,3154.4629,3151.5073,3148.5017,3146.3938,3144.8398,3143.5229,3142.2451,3141.1353,3140.1926,3139.1311,3137.9504,3136.4812,3134.9326,3133.8040,3132.8215,3132.1111,3131.4429,3130.8843,3130.3252,3129.6411,3128.9070,3127.9592,3126.9202,3125.8005,3124.7737,3123.7131,3122.3572,3119.2983,3114.0188,3109.3677,3108.4900,3108.4915,3108.0906,3106.6260,3104.6785,3102.8938,3101.4175,3100.2864,3098.5354,3096.1035,3093.3318,3091.1133,3089.6238,3089.0049,3088.6892,3088.6086,3088.7468,3089.0952,3089.7502,3090.6016,3091.2344,3091.5420,3091.5078,3091.2773,3090.9534,3090.4114,3089.5120,3088.4495,3087.2576,3085.5056,3083.2639,3081.5293,3079.9263,3079.5737,3078.8357,3078.7505,3079.0718,3079.5146,3079.9949,3080.2217,3079.7063,3078.3274,3076.8291,3075.0879,3072.4983,3069.2700,3065.6797,3062.6545,3059.9966,3057.6145,3055.3069,3053.2053,3051.5942,3049.8418,3048.0620,3046.1685,3044.6519,3043.3904,3042.1460,3041.1106,3040.8044,3040.9316,3040.9304,3041.8101,3042.5942,3043.1350,3043.6091,3043.8198,3043.5088,3042.7585,3041.6760,3040.5955,3039.5212,3038.0310,3035.3582,3031.6819,3027.8145,3023.8960,3019.9937,3015.5627,3011.1523,3005.1372,3000.9534,2997.8667,2994.9070,2991.4746,2987.8135,2984.0645,2979.4309,2975.1772,2971.7048,2967.6470,2963.3564,2959.1401,2954.7090,2950.9341,2946.4431,2941.4722,2936.9944,2932.6843,2928.3711,2922.6030,2915.8303,2907.0044,2898.7498,2891.0881,2882.1924,2874.0271,2866.3066,2857.1130,2849.0864,2841.6719,2831.8838,2825.4165,2819.7817,2812.7729,2804.1035,2795.5667,2788.1387,2780.9043,2775.5586,2769.8467,2763.3467,2757.4463,2752.4888,2747.5073,2742.1846,2735.9697,2730.8230,2725.5371
3251.1096,3252.7930,3254.0522,3255.2878,3256.5359,3257.5747,3258.5635,3259.4851,3260.3516,3261.1875,3262.0249,3262.9438,3263.9434,3264.8755,3265.7205,3266.5647,3267.3433,3268.1318,3268.9084,3269.7627,3270.4678,3271.1030,3271.5662,3271.8616,3272.4878,3273.3816,3275.0076,3276.8679,3278.4778,3280.3660,3282.3923,3284.4272,3286.4551,3288.5942,3290.6799,3292.7312,3294.9141,3297.1636,3299.4197,3301.6191,3303.5781,3305.3574,3307.1345,3308.9893,3310.9575,3313.0012,3314.8030,3316.1648,3317.1965,3316.6721,3315.2502,3313.3694,3310.8389,3307.9229,3303.7139,3297.9072,3292.3022,3287.0725,3281.5898,3275.5330,3269.1738,3262.8794,3257.0120,3252.0674,3247.6460,3244.4121,3242.4207,3240.2178,3237.7588,3235.5093,3233.4993,3231.8860,3230.6692,3229.3696,3228.1050,3226.7646,3225.5493,3224.1929,3223.0134,3221.7576,3220.4421,3219.5198,3218.6516,3218.0239,3217.3079,3216.7202,3216.5266,3216.3777,3216.2419,3216.3181,3216.6516,3217.1423,3217.8164,3218.5232,3219.0371,3219.2900,3219.3848,3219.4185,3219.3059,3219.0137,3218.5593,3217.8320,3216.9524,3215.5154,3213.4475,3211.5967,3209.8845,3208.0581,3203.7065,3198.9692,3193.8674,3186.9719,3184.8794,3181.0820,3176.5813,3172.5208,3166.0991,3161.7651,3162.0747,3163.0520,3163.9690,3164.7969,3165.4709,3166.0359,3166.4832,3166.9177,3167.0869,3166.7959,3166.2175,3165.4072,3164.4617,3163.3096,3162.2080,3161.1399,3159.8491,3158.0171,3155.7329,3152.9749,3150.0994,3147.2952,3145.1592,3143.3726,3141.8428,3140.4385,3139.2419,3138.1187,3137.1023,3136.1072,3134.7634,3133.3601,3131.7690,3130.3396,3129.0457,3128.0889,3127.6128,3127.1709,3126.7771,3126.2568,3125.4258,3124.7190,3123.5559,3122.2622,3120.2073,3117.7915,3117.0859,3116.9619,3117.0530,3116.7805,3116.7104,3117.0906,3116.5769,3115.0095,3112.5398,3109.9104,3107.6636,3105.7537,3103.8572,3101.7671,3099.5017,3097.1135,3095.4268,3094.4763,3093.8186,3093.5742,3093.7725,3094.4338,3095.4763,3096.7688,3097.4927,3098.0352,3097.6003,3096.7341,3095.4355,3094.2661,3092.7615,3091.0583,3089.3291,3087.4873,3085.5425,3083.8765,3082.9722,3082.4553,3081.8723,3081.4365,3081.3450,3081.6230,3082.2480,3082.8792,3082.7725,3080.6711,3077.9062,3075.1562,3072.3438,3069.4775,3066.1729,3063.3909,3060.8374,3058.6836,3056.4224,3054.2283,3052.3596,3050.3906,3048.6960,3047.1326,3045.7798,3044.5500,3043.2288,3042.6309,3042.4822,3042.5322,3043.0356,3043.7048,3044.5740,3045.0103,3045.1414,3044.8225,3044.2495,3043.3352,3042.2324,3041.0051,3039.6931,3038.0347,3035.1047,3031.1851,3026.9861,3023.1516,3019.6987,3015.8821,3011.8635,3005.5532,3000.8584,2997.7097,2994.5723,2991.2102,2987.3589,2983.1309,2978.5154,2974.3213,2970.3691,2965.6731,2961.2793,2956.4568,2951.3174,2947.2363,2942.6824,2938.0862,2933.8867,2929.1868,2923.9800,2917.2083,2909.1099,2900.3313,2892.9175,2885.3262,2876.8628,2868.8240,2861.6602,2853.6699,2845.3174,2837.6758,2829.4780,2824.5627,2818.9214,2812.1353,2804.7905,2796.2104,2789.6626,2783.5867,2778.4387,2773.5786,2768.4321,2762.7729,2757.5503,2752.6086,2747.7004,2742.3218,2736.4778,2730.9250
3251.9539,3253.2322,3254.2742,3255.2537,3256.3521,3257.4441,3258.5442,3259.5166,3260.5063,3261.4255,3262.3762,3263.4497,3264.5161,3265.3735,3266.2212,3267.0627,3267.9626,3268.7371,3269.6846,3270.5112,3271.2937,3272.0620,3272.5967,3273.2925,3274.1533,3275.1943,3276.5803,3277.8235,3279.2256,3280.8679,3282.7688,3284.8035,3286.7278,3288.8538,3290.6191,3292.4766,3294.4897,3296.7854,3298.9722,3301.1816,3303.1353,3305.0022,3306.8755,3308.7769,3310.6240,3312.9260,3314.7222,3316.4106,3317.9880,3318.4893,3317.1292,3315.0120,3312.2893,3308.9006,3304.9180,3299.3879,3293.8103,3288.3787,3282.9670,3277.1624,3271.2622,3265.5640,3259.8545,3255.0176,3250.5325,3246.7891,3243.8481,3241.6067,3239.1934,3236.7961,3234.7415,3232.8188,3231.4861,3230.0911,3228.7812,3227.4036,3226.0171,3224.8547,3223.5818,3222.2856,3220.9700,3219.8352,3218.9695,3218.3193,3217.8655,3217.7117,3217.5686,3217.5095,3217.5969,3217.8298,3218.2937,3218.8582,3219.4917,3220.2468,3221.0359,3221.4475,3221.6287,3221.6809,3221.6282,3221.4424,3221.0474,3220.6890,3219.9629,3218.0378,3214.6785,3212.1741,3210.3752,3208.0149,3203.7712,3199.4097,3194.3977,3187.0103,3184.6292,3180.9751,3176.8352,3173.1294,3168.0027,3162.0225,3158.5137,3156.8516,3157.3491,3158.2197,3158.5715,3158.8860,3159.2275,3159.4353,3159.3308,3159.3232,3159.0352,3158.5872,3158.1741,3157.5525,3156.6899,3155.7808,3154.4949,3152.9182,3150.9492,3148.4702,3145.9080,3143.8735,3141.9775,3140.4082,3139.0349,3137.6411,3136.2139,3134.9602,3134.0027,3133.0420,3131.9656,3130.4875,3128.7778,3127.1965,3126.0869,3125.9172,3125.5718,3125.1985,3124.7354,3124.5298,3124.3486,3124.3760,3124.5659,3124.8523,3125.2883,3125.6345,3125.9609,3126.2324,3125.9221,3125.0713,3124.6479,3124.9695,3124.5056,3123.3542,3120.9893,3117.8347,3114.4578,3111.4189,3109.0518,3106.9092,3104.6555,3102.4656,3100.7209,3099.4446,3098.4543,3098.1514,3098.1497,3099.2722,3100.7083,3101.9573,3102.3792,3102.5332,3101.7153,3100.6377,3099.1211,3097.3994,3095.5125,3093.3008,3090.9976,3088.8369,3086.8010,3085.1228,3084.1465,3083.5244,3083.0999,3082.7974,3082.6526,3083.2468,3084.2554,3085.5891,3085.7803,3082.7617,3078.8074,3075.2698,3072.3789,3069.5759,3066.6609,3064.1086,3061.8025,3059.5354,3057.1882,3054.9097,3052.7739,3051.1145,3049.7537,3048.3647,3046.9443,3045.5593,3044.6453,3044.4834,3044.5569,3045.0261,3045.2019,3046.0481,3046.7205,3047.2385,3047.2373,3046.5405,3045.3535,3043.7942,3042.2087,3040.6235,3039.5332,3037.6057,3034.5061,3030.8218,3026.8206,3023.1406,3019.9585,3016.6079,3013.6384,3008.1074,3002.1099,2998.4910,2995.1780,2991.3772,2987.3420,2983.2922,2979.1917,2975.1069,2970.0959,2965.2339,2960.4292,2955.4556,2950.6873,2945.4692,2940.2349,2935.9255,2931.4902,2926.4146,2920.7300,2913.7195,2904.6707,2894.9294,2887.5061,2880.5642,2872.8635,2864.9531,2859.0559,2852.4766,2846.1875,2839.3340,2831.4653,2825.4482,2819.8489,2813.3950,2805.9224,2799.7236,2793.8550,2788.6091,2783.1863,2778.1772,2773.1729,2767.9329,2762.6313,2757.6118,2752.6191,2747.6106,2742.1252,2736.3171
3252.4888,3253.4097,3254.4929,3255.2891,3256.2505,3257.3621,3258.5830,3259.6941,3260.7664,3261.8511,3262.9282,3264.1138,3265.0105,3265.8037,3266.7000,3267.5679,3268.5073,3269.4512,3270.3953,3271.2388,3272.1204,3272.8005,3273.5027,3274.4958,3275.3750,3276.3748,3277.3647,3278.5222,3279.7910,3281.2717,3283.1282,3284.9961,3287.0925,3288.9453,3290.6580,3292.3896,3294.4006,3296.5522,3298.6458,3300.8628,3302.6975,3304.3818,3306.0850,3308.1465,3310.2397,3312.6606,3314.6721,3316.4968,3318.1804,3319.1973,3319.0247,3317.2522,3314.0342,3310.0300,3305.8577,3300.6770,3295.2754,3289.7925,3283.9817,3278.4805,3273.2700,3268.0928,3262.7483,3257.9519,3253.6978,3249.3225,3245.6243,3243.0679,3240.5935,3238.1316,3235.9077,3233.8467,3232.1433,3230.8411,3229.4265,3228.1011,3226.7705,3225.6077,3224.3621,3223.0105,3221.6826,3220.2461,3219.3933,3218.8208,3218.6926,3218.5872,3218.5039,3218.5635,3218.7466,3219.1411,3219.6157,3220.1028,3220.9961,3222.0300,3222.8682,3223.4944,3223.7932,3223.8193,3223.7236,3223.4429,3222.8276,3222.1692,3221.4106,3218.9287,3214.5310,3210.5183,3208.8381,3206.3340,3202.5415,3198.1443,3192.6050,3186.2095,3183.6826,3179.6531,3174.9312,3171.0662,3167.6125,3163.7080,3160.6338,3157.2061,3153.7964,3151.2305,3149.6064,3147.9722,3147.3477,3147.5115,3148.0293,3148.9065,3149.7729,3150.0229,3150.0137,3150.3774,3150.3750,3149.9646,3149.3525,3148.4431,3146.2830,3143.7734,3141.3730,3139.5957,3138.5425,3137.5542,3136.3916,3134.7510,3133.4624,3132.5144,3131.6299,3130.7424,3129.6179,3128.2463,3127.0669,3127.3098,3127.4331,3127.3889,3127.1306,3126.9570,3126.8472,3126.8621,3127.0750,3127.3965,3128.1589,3128.6711,3129.3440,3130.1372,3130.8438,3131.3101,3131.4785,3131.2002,3130.7085,3130.1362,3129.4578,3128.3713,3126.8013,3125.0542,3122.4343,3118.9187,3115.4204,3112.4399,3110.0027,3107.9639,3106.2739,3104.9248,3104.1631,3103.7551,3103.9658,3104.7078,3105.9297,3107.2510,3108.0156,3107.2080,3105.4587,3103.4473,3101.7266,3099.9138,3097.7217,3095.0801,3092.4502,3090.1274,3088.0579,3086.3594,3085.0789,3084.4495,3083.7473,3082.9438,3082.7134,3083.1362,3084.8940,3086.1213,3086.5391,3083.5962,3078.2537,3074.2522,3071.7253,3069.3201,3066.6277,3064.3059,3061.9187,3059.9209,3057.9941,3055.5767,3053.4133,3052.0625,3050.8381,3049.6726,3047.9817,3046.6538,3046.2512,3046.3083,3046.4089,3046.7725,3047.4463,3048.2734,3048.8984,3049.0776,3048.7061,3047.9045,3046.7175,3045.2004,3042.9641,3040.6777,3039.0117,3036.9829,3034.1658,3030.8247,3027.2603,3023.7473,3020.5337,3017.5168,3014.9810,3011.9431,3005.3870,3000.7148,2996.4458,2992.1545,2987.8594,2983.7180,2979.8625,2975.5903,2970.0938,2964.8433,2959.9441,2955.0750,2950.1829,2944.8215,2939.6821,2934.9812,2930.0667,2924.8445,2919.1956,2911.9131,2902.2710,2892.9373,2885.6055,2879.2422,2872.6697,2866.2556,2859.3354,2852.9355,2846.5933,2839.9050,2832.0361,2826.1257,2820.2502,2814.7969,2809.5654,2804.6748,2799.6077,2794.5232,2789.0344,2783.4082,2778.1067,2772.9133,2767.5044,2762.4180,2757.1345,2752.1094,2747.1785,2741.7422
3253.1372,3253.8445,3254.7500,3255.6433,3256.5408,3257.6416,3258.8320,3260.0476,3261.2322,3262.5889,3263.7383,3264.6926,3265.5242,3266.3062,3267.0959,3267.9678,3268.9099,3269.9519,3270.8992,3271.8496,3272.7217,3273.6155,3274.5691,3275.5046,3276.3838,3277.2266,3278.1758,3279.0981,3280.2429,3281.6433,3283.5166,3285.4062,3287.4512,3289.1470,3290.8440,3292.5386,3294.3914,3296.4387,3298.4316,3300.5554,3302.3047,3303.8054,3305.3540,3307.4058,3309.8611,3312.4844,3314.8521,3316.9683,3318.5144,3319.4966,3320.1428,3319.1855,3315.8401,3311.1113,3306.3274,3301.5051,3296.4727,3290.9380,3284.9490,3279.5271,3274.7756,3270.2104,3265.3528,3260.8945,3256.9016,3252.4500,3247.9692,3244.4075,3241.9822,3239.4248,3236.9829,3234.8452,3232.8540,3231.4268,3230.1814,3228.9204,3227.8945,3226.6433,3225.2986,3223.9607,3222.5105,3220.9360,3219.9277,3219.8372,3219.9429,3219.6772,3219.6387,3219.7373,3219.9934,3220.3442,3221.2349,3222.3096,3223.3918,3224.3381,3225.1445,3225.5378,3225.8083,3225.6726,3225.0588,3224.4114,3222.6045,3220.9575,3219.4727,3216.3389,3212.6902,3208.9873,3206.2205,3203.3523,3199.6777,3195.4768,3190.4399,3186.2109,3182.8757,3179.2524,3173.0703,3169.8323,3167.5913,3164.4968,3160.6653,3157.5679,3155.3525,3153.1113,3151.0681,3149.4092,3147.6780,3145.4343,3143.1108,3141.4614,3140.1064,3138.5276,3137.6777,3137.1890,3135.9060,3135.8171,3136.4324,3136.8743,3136.8162,3136.6455,3136.1084,3135.5103,3134.7893,3134.1719,3133.0337,3132.0437,3131.3354,3130.5894,3129.8657,3129.1016,3128.0940,3128.2009,3128.5181,3128.8623,3129.1746,3129.3738,3129.4878,3129.8215,3130.2119,3130.5942,3130.9641,3131.6340,3132.2610,3132.8198,3133.4785,3134.2893,3135.3188,3135.9883,3136.3303,3136.1716,3135.6943,3135.0168,3134.3350,3133.0371,3131.3501,3129.4978,3127.4082,3125.0913,3122.3826,3118.8577,3115.6301,3112.9248,3111.2075,3110.1311,3109.3411,3108.9890,3109.3127,3110.1042,3110.8645,3111.7900,3111.8701,3110.5183,3108.2476,3106.0730,3103.8452,3101.3958,3098.6760,3096.2048,3093.8369,3091.4453,3089.3938,3087.5254,3086.1353,3085.0156,3083.8940,3082.7527,3082.2217,3082.3347,3083.4329,3085.7905,3086.5825,3083.4863,3076.9280,3072.9177,3070.3870,3068.1062,3065.8018,3063.6511,3061.4624,3059.9097,3058.1165,3055.9858,3054.0105,3052.5701,3051.4844,3050.2612,3048.8169,3048.3933,3048.2676,3047.9788,3048.0676,3048.5032,3049.0959,3049.7725,3050.3030,3050.3564,3049.9543,3049.0742,3047.8303,3046.3767,3044.3064,3041.6194,3039.3882,3036.8997,3034.2422,3031.3413,3027.9707,3024.5469,3021.4182,3018.5310,3016.0764,3013.4734,3008.6174,3003.2209,2997.8596,2992.9373,2988.4243,2983.9941,2979.6892,2975.3110,2969.7822,2964.4089,2959.4106,2954.6208,2949.7649,2944.6550,2939.6177,2934.6125,2929.4355,2923.9375,2918.0786,2910.4463,2901.3289,2892.1414,2884.8691,2878.3506,2872.5598,2866.4285,2859.6316,2852.9175,2846.4504,2839.5850,2832.5850,2827.3711,2822.7217,2818.1145,2813.8037,2809.5552,2805.4170,2800.2461,2795.1748,2789.5845,2783.5474,2777.9619,2772.3667,2767.0793,2761.5679,2756.2615,2751.3101,2746.1450
3253.8533,3254.6384,3255.3604,3256.3093,3257.1477,3258.2378,3259.4109,3260.6760,3261.9241,3263.1948,3264.3494,3265.2966,3266.1260,3266.8396,3267.5767,3268.2815,3269.2505,3270.3574,3271.4668,3272.4546,3273.4009,3274.3823,3275.4905,3276.4221,3277.3096,3278.1545,3279.0164,3279.9458,3280.9165,3282.3889,3284.1099,3285.9893,3287.8982,3289.5374,3291.0811,3292.6277,3294.4202,3296.4436,3298.3875,3300.5037,3301.8711,3303.3455,3304.9011,3306.8955,3309.4829,3312.3496,3315.1436,3317.5862,3318.8909,3319.8105,3320.6648,3319.9766,3316.9683,3311.9517,3306.8564,3302.1863,3297.3052,3291.8921,3286.0190,3280.4229,3275.9150,3271.5210,3267.1687,3263.1021,3259.4131,3255.2822,3250.2969,3245.9202,3243.0085,3240.6895,3238.3364,3235.9363,3233.8730,3232.2271,3231.1108,3230.0186,3228.9363,3227.7810,3226.5842,3225.2263,3223.8984,3222.1992,3221.1077,3221.5464,3221.6543,3221.4858,3221.4041,3221.7434,3222.3279,3223.2090,3224.2312,3225.3083,3226.6147,3227.6321,3228.1416,3228.2935,3227.9941,3227.4399,3225.5957,3222.1748,3220.1401,3218.8408,3217.5952,3214.6814,3209.6165,3206.9773,3205.4141,3202.9094,3198.5715,3194.8108,3191.8828,3188.8672,3185.4927,3182.3425,3177.6968,3173.0012,3169.8464,3166.7703,3162.6160,3159.7417,3158.1467,3156.8665,3155.3691,3153.8240,3152.1467,3150.3374,3148.8369,3147.1753,3144.9768,3142.6003,3140.3120,3138.3794,3136.6514,3135.2048,3134.4324,3133.6199,3132.9048,3132.4490,3132.0764,3131.6802,3131.3210,3130.9475,3130.5513,3130.1021,3129.6270,3129.6108,3129.6077,3129.7192,3130.0459,3130.4387,3130.9224,3131.2488,3131.3853,3131.7346,3132.2454,3132.8557,3133.4756,3134.0859,3134.7410,3135.2949,3135.9985,3136.7793,3137.5537,3138.3677,3139.0588,3139.6650,3139.8374,3139.6948,3139.1897,3138.6382,3137.8376,3136.7183,3135.4146,3133.9177,3131.6165,3129.2844,3126.5408,3123.5149,3120.3325,3117.5291,3114.9180,3113.5818,3112.9897,3112.6404,3112.8208,3113.2280,3113.6924,3113.6528,3113.0269,3111.7903,3110.1204,3108.0496,3105.8281,3102.8113,3099.7134,3097.1982,3094.9260,3092.7473,3090.6887,3088.7485,3086.8684,3085.1746,3083.8684,3082.4438,3081.1313,3080.7129,3082.2339,3082.2832,3080.7068,3077.6472,3074.8411,3071.4573,3068.7856,3066.3354,3064.1768,3062.3135,3061.0254,3059.8164,3058.2773,3056.3750,3054.5039,3052.9629,3051.6709,3050.6438,3050.1433,3050.1458,3049.6804,3049.2632,3049.4570,3049.8438,3050.3918,3050.9910,3051.4189,3051.2361,3050.7769,3050.1492,3049.1233,3047.5566,3045.6921,3042.8105,3040.0664,3037.3650,3034.7205,3032.1458,3029.2683,3026.2046,3023.1135,3019.8079,3016.6338,3013.8457,3009.3821,3003.9592,2998.3516,2993.2229,2988.5349,2983.7393,2978.9702,2974.1333,2968.7861,2963.5386,2958.7793,2954.1589,2949.2876,2944.2012,2939.3533,2934.0854,2928.8186,2923.2805,2917.2744,2909.5891,2900.6528,2891.4333,2884.4062,2877.7656,2872.7637,2866.6978,2860.9270,2854.4744,2848.7466,2843.1831,2837.1704,2831.0735,2826.2913,2821.8555,2817.6138,2813.5234,2809.5681,2805.2957,2800.1509,2794.8909,2788.9517,2782.9460,2777.2915,2771.7300,2766.0078,2760.2869,2754.7358,2749.4663
3254.5603,3255.3423,3256.2322,3257.1221,3258.0652,3259.0278,3260.2183,3261.3689,3262.7168,3264.0732,3265.0564,3266.0085,3266.8403,3267.5625,3268.1873,3268.9001,3269.8699,3270.9656,3272.0654,3273.1655,3274.1870,3275.3025,3276.3225,3277.3789,3278.3286,3279.2905,3280.1460,3281.0461,3282.2075,3283.5291,3285.0649,3286.7957,3288.5715,3290.0593,3291.5029,3293.0801,3294.8691,3296.7229,3298.5930,3300.5312,3301.9502,3303.3477,3304.8047,3306.6804,3309.2871,3312.3933,3315.0371,3317.3215,3318.7009,3319.6277,3320.4702,3319.8267,3317.2305,3312.6707,3307.9429,3303.3596,3298.4741,3293.3008,3287.2637,3281.3528,3276.8379,3272.7200,3268.5132,3264.6472,3260.9429,3257.2119,3252.3171,3247.4360,3243.9968,3241.7563,3239.5054,3237.3738,3235.3506,3233.8550,3232.4883,3231.4084,3230.4414,3229.3625,3228.2598,3226.9277,3225.8074,3224.3489,3223.2661,3223.2034,3223.6367,3224.0334,3224.3220,3224.9009,3225.7063,3226.7795,3228.0352,3229.3208,3230.3606,3231.0283,3231.1780,3231.0671,3230.6763,3229.9448,3228.3772,3223.8708,3220.5598,3219.0554,3218.0620,3216.1575,3212.7166,3209.9966,3208.0322,3205.7488,3202.5049,3198.5715,3195.3960,3192.3989,3189.0259,3186.1003,3183.7200,3179.3867,3174.0432,3170.1619,3167.9885,3165.3430,3163.4692,3161.6101,3159.9419,3158.3193,3156.9221,3155.4890,3153.9539,3152.4180,3150.8687,3149.4907,3147.9141,3145.4663,3143.0540,3140.9878,3138.6997,3136.5540,3134.5789,3133.6587,3132.9871,3132.4490,3131.9771,3131.6257,3131.3135,3131.1353,3131.7937,3132.3328,3132.8640,3133.5176,3133.8755,3134.1433,3134.0627,3133.9819,3133.9351,3134.2483,3134.8467,3135.6587,3136.5737,3137.5850,3138.5183,3139.3879,3140.3059,3141.2009,3142.0408,3142.7864,3143.2722,3143.4844,3143.4570,3143.0535,3142.4580,3141.6946,3140.6475,3139.4336,3138.1240,3136.9434,3135.5103,3133.2400,3129.6235,3125.5271,3122.2732,3120.0740,3118.2278,3117.2278,3115.9253,3115.1472,3114.6909,3114.3967,3114.3320,3114.0083,3113.5667,3112.7153,3111.6746,3110.7388,3108.2458,3104.5706,3101.2874,3098.4453,3096.0891,3093.7080,3091.1165,3088.9482,3086.6799,3084.9033,3083.2622,3081.6428,3080.1633,3079.5195,3078.5916,3077.4390,3076.2871,3074.4487,3072.1541,3069.2876,3066.4956,3063.9658,3062.1318,3061.1797,3060.5076,3059.4351,3058.1821,3056.4758,3054.8970,3053.6606,3052.5352,3051.7915,3051.3811,3051.2378,3050.8816,3050.7402,3050.8640,3051.2786,3051.7053,3052.1931,3052.3137,3051.9980,3051.5176,3050.8660,3050.1992,3049.1748,3047.1445,3044.5522,3041.3303,3038.2576,3035.5115,3033.1731,3030.7974,3028.0000,3024.8965,3021.0881,3017.2644,3013.5037,3008.3181,3002.7048,2997.6248,2992.5347,2987.7104,2982.8352,2978.0122,2972.8816,2967.5017,2962.4216,2957.8176,2953.3030,2948.3293,2943.0627,2938.1206,2933.5168,2928.3176,2923.1917,2917.0471,2910.0974,2902.1672,2893.1243,2886.8333,2880.7300,2875.8337,2870.4651,2865.1243,2858.9094,2852.8247,2847.9700,2842.7593,2836.1184,2829.9988,2825.4482,2821.2544,2816.9529,2812.9009,2808.8206,2804.2085,2798.9661,2793.5295,2787.3467,2781.5085,2775.6279,2769.7703,2763.3198,2757.1003,2752.0725
3255.3577,3256.1506,3257.0955,3258.0420,3258.9810,3259.9280,3261.0193,3262.2104,3263.4609,3264.6707,3265.7639,3266.8860,3267.7629,3268.4973,3269.1533,3269.8550,3270.7600,3271.7915,3272.7905,3273.8928,3275.0637,3276.2019,3277.2380,3278.3296,3279.3403,3280.3518,3281.3743,3282.4817,3283.5830,3284.8433,3286.2944,3287.8999,3289.3279,3290.6897,3292.0994,3293.6487,3295.4705,3297.2627,3299.1948,3300.9241,3302.3403,3303.8374,3305.2644,3307.2166,3309.4968,3312.4387,3314.7944,3316.6267,3318.1921,3319.1089,3319.7351,3319.2097,3316.9531,3313.1213,3308.8245,3304.7534,3299.8704,3294.7673,3288.7632,3282.7200,3278.0657,3273.7256,3269.3994,3265.5476,3261.9565,3258.2627,3253.7896,3248.8831,3245.0132,3242.7781,3240.8464,3238.9441,3237.1331,3235.6331,3234.3833,3233.3235,3232.2549,3231.3452,3230.3062,3229.1541,3227.9011,3226.4160,3225.2180,3225.4111,3226.1011,3226.9412,3227.5830,3228.3198,3229.2124,3230.3599,3231.6621,3233.1577,3234.0730,3234.6624,3234.6064,3234.1853,3233.4375,3232.7024,3231.3562,3228.9700,3225.6719,3223.0896,3221.4814,3220.0718,3218.3232,3215.6941,3213.0342,3210.4282,3207.9675,3204.4751,3200.4094,3196.8665,3193.4741,3190.2432,3187.0959,3185.2930,3182.5706,3177.7019,3174.3862,3172.3750,3170.5193,3168.6353,3166.5247,3164.4299,3162.4534,3160.6062,3159.1372,3157.8943,3156.5432,3155.1777,3153.5237,3151.5493,3149.6741,3147.5439,3144.5281,3141.6895,3138.3237,3135.2983,3134.2185,3133.6216,3132.9514,3132.5632,3132.4856,3133.5408,3134.8645,3135.6584,3136.0564,3136.4963,3136.8252,3136.9822,3136.9241,3136.8667,3136.9822,3137.4197,3138.3672,3139.4524,3140.5234,3141.6895,3142.7515,3143.7471,3144.8257,3145.9368,3146.7573,3147.0652,3147.1455,3147.1853,3146.8650,3146.2322,3145.3452,3144.2988,3143.0444,3141.5181,3140.5493,3139.0557,3137.5547,3135.6543,3131.3911,3126.1418,3122.6731,3120.8235,3119.5403,3118.1160,3116.7395,3115.3572,3114.1514,3113.3250,3112.9478,3112.8079,3113.2949,3113.3240,3112.8376,3111.7268,3109.4958,3106.0000,3102.5906,3099.7241,3097.2424,3094.3718,3091.5037,3088.9932,3086.8381,3084.6975,3082.9392,3080.9956,3078.7844,3076.9607,3076.2231,3074.9397,3073.7219,3071.7422,3069.0327,3066.0173,3063.2336,3061.4631,3060.6809,3059.9739,3059.1296,3058.3333,3057.4031,3056.2241,3055.2092,3054.2104,3053.4185,3052.9829,3052.5403,3052.4546,3052.4194,3052.4824,3052.6003,3052.8013,3052.9836,3053.2405,3053.1338,3052.8208,3052.3230,3051.6865,3051.0884,3050.2517,3048.8052,3046.1262,3043.0852,3039.8337,3036.6450,3034.3003,3032.1948,3029.4214,3026.2185,3022.2659,3017.7368,3013.0710,3006.4153,3000.3679,2995.6121,2990.9106,2986.2429,2981.5544,2976.8972,2971.7356,2966.4153,2961.5947,2957.1211,2952.3447,2947.4783,2941.7834,2937.4358,2933.6228,2928.9409,2924.3628,2919.2285,2913.5466,2907.3599,2900.4211,2893.0156,2886.9917,2881.2407,2875.8594,2870.8477,2865.3711,2858.7151,2852.9153,2847.4519,2841.6443,2834.7268,2828.9060,2824.5178,2820.1343,2815.8337,2811.8181,2807.6074,2802.4971,2796.6436,2790.7615,2785.0649,2779.1904,2772.3203,2765.8208,2759.4414,2753.9600
3256.2810,3257.1577,3257.9553,3258.8516,3259.8594,3260.8645,3261.8894,3263.1040,3264.2705,3265.4060,3266.6707,3267.7944,3268.7781,3269.5745,3270.2439,3270.9539,3271.7732,3272.7122,3273.6431,3274.7249,3275.9055,3277.0059,3278.1299,3279.2385,3280.3159,3281.4270,3282.5864,3283.7268,3284.9109,3286.2339,3287.6619,3288.9724,3290.3765,3291.7488,3293.0674,3294.6343,3296.2979,3298.1702,3300.0225,3301.6201,3303.0930,3304.5847,3306.1304,3307.8508,3309.8508,3312.5540,3314.7603,3316.2375,3317.3647,3318.2056,3318.6550,3318.2439,3316.1873,3313.2568,3309.6934,3305.8652,3301.1963,3295.9758,3290.3535,3284.5378,3279.5044,3274.7773,3270.2122,3266.2209,3262.5427,3258.7256,3254.5127,3250.0005,3246.2180,3243.6287,3241.9707,3240.5054,3239.2188,3237.7883,3236.7070,3235.7224,3234.7646,3233.7773,3232.9165,3231.7493,3230.4556,3228.6138,3227.2610,3227.4756,3228.5081,3229.5022,3230.3921,3231.1765,3232.0032,3233.5300,3235.5354,3237.2932,3238.6504,3239.0076,3238.8320,3238.3279,3237.5144,3236.5454,3235.3647,3234.0571,3232.2456,3229.8391,3227.2327,3225.3828,3223.5103,3221.5264,3218.7183,3215.6965,3212.8347,3209.8457,3206.2451,3202.2751,3198.4844,3194.9771,3191.6067,3188.2815,3186.1194,3184.6860,3182.3689,3179.8386,3177.8267,3175.9434,3173.8967,3171.6101,3169.4387,3167.4189,3165.5305,3163.9910,3162.5562,3161.0847,3159.6626,3158.1711,3156.3640,3153.9712,3150.9102,3148.5640,3145.7273,3140.9829,3136.4453,3134.5173,3133.9028,3133.6296,3134.6743,3136.1060,3137.1770,3137.9966,3138.5852,3139.0464,3139.3708,3139.5952,3139.8291,3140.1804,3140.7380,3141.5999,3142.6594,3143.8462,3145.0984,3146.0955,3146.9766,3147.7715,3148.3420,3148.9485,3149.4734,3149.7053,3149.6541,3149.4988,3149.0959,3148.5249,3147.7090,3146.3855,3144.6528,3143.1265,3141.3176,3139.5640,3137.5051,3134.9995,3130.6973,3125.8911,3122.4136,3120.2351,3118.5662,3116.5964,3115.1565,3113.5300,3112.2273,3111.2725,3110.4951,3110.3359,3110.6521,3111.3215,3111.9336,3112.1318,3109.6233,3106.2678,3102.6387,3100.1953,3097.5684,3094.6433,3091.6323,3089.0989,3086.8821,3084.5842,3082.0010,3079.0283,3076.5825,3074.9846,3073.7766,3072.4749,3070.7173,3068.5562,3065.6221,3062.5864,3061.0256,3060.2651,3059.5259,3058.9900,3058.3313,3057.6179,3056.8613,3056.1541,3055.5039,3054.9187,3054.3989,3054.0461,3053.7817,3053.7891,3053.9573,3054.0063,3054.1809,3054.1272,3054.2419,3054.1614,3053.9365,3053.6355,3053.1619,3052.6897,3052.0305,3051.0547,3050.1609,3048.2886,3045.3748,3042.1147,3038.6648,3035.8860,3033.9050,3030.9688,3027.1584,3023.0251,3017.5454,3011.2395,3003.9485,2998.0164,2993.3074,2988.8376,2984.9370,2980.5120,2976.1843,2971.2180,2965.8721,2961.4414,2957.0361,2952.1960,2947.7004,2942.8201,2938.4207,2934.8733,2931.1018,2927.1909,2922.5120,2917.6982,2912.2229,2906.3943,2899.9653,2893.5234,2887.6140,2881.4915,2875.9387,2870.9312,2865.3894,2858.7061,2852.3777,2846.5181,2840.2563,2833.3848,2828.0564,2823.4822,2818.9441,2814.6030,2810.3569,2805.5610,2799.6694,2793.4231,2787.6377,2781.8125,2774.9272,2768.0125,2761.3518,2755.3374
3257.2683,3258.0728,3258.9231,3259.7756,3260.7104,3261.7642,3262.7732,3263.8743,3264.9795,3266.1062,3267.3694,3268.4773,3269.4695,3270.3582,3271.1287,3271.8440,3272.6719,3273.5269,3274.4580,3275.6003,3276.7161,3277.9182,3279.0312,3280.1460,3281.2454,3282.4622,3283.6519,3284.8879,3286.1179,3287.4658,3288.9072,3290.3303,3291.6743,3293.0093,3294.3655,3295.8923,3297.5247,3299.3171,3300.9651,3302.5732,3304.0557,3305.5618,3306.9944,3308.3933,3309.9998,3312.3186,3314.3350,3315.7036,3316.6426,3317.2844,3317.4314,3316.6003,3315.4373,3313.0955,3309.9390,3306.9951,3302.3435,3296.9146,3291.3826,3286.2405,3280.9856,3276.0059,3271.1333,3266.9031,3263.1179,3259.1011,3255.1948,3251.2659,3247.2781,3244.2815,3242.9543,3241.9578,3241.1904,3240.3301,3239.4263,3238.5186,3237.5981,3236.5623,3235.5083,3234.3965,3232.9814,3231.1587,3229.3018,3229.8142,3231.4011,3232.4263,3233.3877,3234.6572,3236.3435,3238.5894,3241.1553,3243.2659,3244.1558,3244.2927,3243.7378,3242.9429,3241.8782,3240.7834,3239.6069,3238.1133,3236.5046,3234.6433,3232.7280,3230.6267,3228.2800,3225.7488,3223.1333,3220.5076,3217.3560,3214.2256,3211.0681,3207.7520,3203.9377,3200.1675,3196.6257,3193.2563,3190.4092,3188.2427,3186.2822,3185.3506,3184.4785,3183.4553,3181.4609,3179.3396,3176.9463,3174.5247,3172.2275,3170.6409,3169.0291,3167.5232,3166.0842,3164.6108,3162.9990,3160.5552,3157.3813,3154.4011,3151.2468,3148.3020,3142.4656,3136.7288,3134.5361,3135.4480,3137.0115,3138.3789,3139.4507,3140.2983,3141.0159,3141.5273,3141.9553,3142.4497,3142.8804,3143.4399,3144.1780,3145.2014,3146.3625,3147.5359,3148.3767,3148.9839,3149.5159,3150.0425,3150.7056,3151.1650,3151.4722,3151.5530,3151.4297,3151.0969,3150.6145,3149.8386,3148.8604,3147.3352,3144.9739,3142.8418,3140.3284,3138.2339,3135.8574,3132.7678,3128.8562,3124.5635,3121.4397,3119.2190,3116.7114,3114.6685,3112.6819,3111.1609,3109.9954,3108.8870,3107.8313,3107.3792,3107.5078,3107.9929,3108.4551,3109.0286,3107.6040,3104.6367,3102.0752,3099.5378,3096.9834,3093.9028,3090.8398,3088.5137,3086.2910,3083.5942,3080.6243,3077.3010,3074.4861,3072.7063,3071.2378,3069.7417,3067.7217,3065.5054,3063.0012,3061.1138,3060.2222,3059.4885,3058.9202,3058.4531,3058.0388,3057.5120,3057.0557,3056.5771,3056.1074,3055.6558,3055.3967,3055.1985,3055.1096,3055.0300,3055.2065,3055.3547,3055.5042,3055.4675,3055.4148,3055.4150,3055.1724,3054.7773,3054.3018,3053.7166,3053.0503,3052.2168,3051.2070,3050.1443,3048.3235,3045.2642,3041.9185,3039.1147,3036.4238,3033.3806,3028.4463,3023.8430,3016.5356,3008.9661,3002.3318,2996.7634,2991.1616,2987.5396,2984.3120,2980.3125,2976.2354,2972.0771,2967.3208,2963.2002,2958.8550,2954.0847,2949.5742,2945.0610,2940.7715,2936.9229,2933.4592,2929.8110,2925.8127,2921.1428,2916.4338,2910.8499,2904.9011,2899.0154,2893.8237,2888.1584,2881.3650,2875.7285,2870.6370,2864.9202,2857.9197,2851.5986,2845.4133,2838.8499,2832.4104,2827.2378,2822.4307,2817.6909,2813.2449,2808.4956,2802.8621,2796.0173,2789.8845,2784.1396,2777.5667,2770.3555,2763.3345,2756.7117
3258.3000,3259.0112,3259.8438,3260.6929,3261.5828,3262.6062,3263.6311,3264.6699,3265.6621,3266.6863,3267.8518,3269.0051,3270.0249,3270.8892,3271.7568,3272.6348,3273.4490,3274.3284,3275.4197,3276.5232,3277.6189,3278.7168,3279.8567,3280.9807,3282.1995,3283.4424,3284.6628,3285.9167,3287.2327,3288.7134,3290.1658,3291.6311,3293.0266,3294.3748,3295.7971,3297.2478,3298.8586,3300.5007,3302.0708,3303.5693,3305.0581,3306.5608,3307.9038,3309.3103,3310.8640,3312.5652,3313.6873,3314.6470,3315.4639,3315.9900,3316.1963,3315.7422,3314.8528,3313.4348,3310.5383,3307.6245,3303.4192,3298.2483,3293.0852,3287.6875,3282.3894,3277.2432,3272.1812,3267.7021,3263.6323,3259.5630,3255.7017,3252.3726,3248.9224,3246.0505,3244.5320,3244.0330,3243.6978,3243.2644,3242.4575,3241.4893,3240.5110,3239.4609,3238.2024,3236.8379,3235.2827,3233.5718,3231.4978,3232.1758,3234.2317,3235.7720,3237.3181,3239.3320,3241.7031,3244.2839,3246.2039,3247.4138,3248.0747,3248.0989,3247.6785,3246.7693,3245.9985,3245.0085,3243.8503,3242.0488,3240.3994,3238.5398,3236.6604,3234.6914,3232.4736,3229.6528,3226.6040,3223.7393,3221.2610,3218.4309,3215.4041,3212.1887,3209.0483,3205.5066,3201.7788,3198.3215,3195.3059,3193.1865,3190.6909,3187.6421,3186.2297,3185.9521,3185.6611,3185.2512,3184.5667,3183.2366,3180.9453,3178.5825,3176.0735,3174.1370,3172.5234,3170.8989,3168.8860,3165.8137,3162.5332,3158.9968,3155.1230,3150.8760,3146.4429,3140.3079,3137.4062,3138.4805,3140.1697,3141.6575,3142.6355,3143.0403,3143.4004,3143.9878,3144.5859,3145.1296,3145.6133,3146.1555,3146.9583,3147.8054,3148.6348,3149.5571,3150.3501,3151.0095,3151.4912,3152.0083,3152.3206,3152.6611,3152.7917,3152.7632,3152.5447,3152.2837,3151.8059,3150.7021,3149.2261,3147.0413,3144.3350,3141.4434,3138.6807,3136.1174,3133.6438,3130.5977,3126.7812,3123.0691,3120.1868,3117.5334,3114.8738,3112.6221,3110.6411,3108.9529,3107.4883,3106.1182,3105.0391,3103.8967,3103.1909,3103.0120,3103.0586,3102.7444,3102.0637,3100.7939,3099.1062,3097.2639,3094.7139,3091.9163,3089.1892,3087.0342,3084.6658,3082.1121,3079.0203,3076.1531,3073.4802,3071.2991,3069.2876,3067.3418,3065.4087,3063.3411,3061.3958,3060.5217,3059.7327,3059.0989,3058.6277,3058.2571,3057.9502,3057.7400,3057.4478,3057.0974,3056.8911,3056.6340,3056.5203,3056.4929,3056.2681,3056.2798,3056.5312,3056.6948,3056.9170,3056.9409,3056.8389,3056.8513,3056.8035,3056.4795,3055.9719,3055.0928,3054.3486,3053.4824,3052.6731,3051.6741,3050.4929,3048.9297,3045.9563,3042.7371,3039.9380,3036.1919,3030.6145,3024.4553,3015.2883,3007.1831,3001.0024,2996.1277,2990.2263,2987.4668,2985.4084,2982.3674,2978.8442,2975.0166,2970.7507,2966.6045,2961.9382,2957.0171,2952.3613,2947.8208,2943.2954,2939.1318,2935.6890,2932.1807,2928.6416,2924.2632,2919.6841,2914.6277,2908.9089,2903.6431,2898.6196,2893.7332,2887.4482,2880.7488,2875.1340,2869.8665,2863.5410,2856.8877,2850.4092,2844.0486,2837.6653,2831.6377,2826.3511,2821.1094,2816.0396,2811.2769,2806.0833,2799.1030,2792.1382,2786.2612,2780.0208,2772.7437,2765.4834,2758.4224
3259.2361,3260.0371,3260.8186,3261.6187,3262.5493,3263.6868,3264.5234,3265.3333,3266.1792,3267.1084,3268.0378,3269.1018,3270.2090,3271.2778,3272.2305,3273.1431,3274.1592,3275.1221,3276.2085,3277.2139,3278.2632,3279.4150,3280.5540,3281.7456,3282.9985,3284.2576,3285.5112,3286.8706,3288.2944,3289.8706,3291.3855,3292.7837,3294.2727,3295.7061,3297.0305,3298.5615,3300.1335,3301.7085,3303.2771,3304.8333,3306.1746,3307.5544,3308.8928,3310.2197,3311.6619,3312.8350,3313.6787,3314.4551,3315.3113,3315.9951,3316.4199,3316.5635,3316.1897,3314.8020,3312.1069,3308.6348,3304.4690,3299.4597,3294.2930,3288.9370,3283.5889,3278.4514,3273.3154,3268.6431,3264.4729,3260.1917,3256.5935,3253.9910,3251.7527,3249.3459,3247.8701,3247.2363,3246.7795,3246.2148,3245.4336,3244.5847,3243.7083,3242.5515,3241.3027,3239.6702,3237.8652,3235.9363,3233.7415,3234.2546,3236.5774,3238.8989,3241.1621,3243.4663,3246.0142,3248.2385,3250.0513,3251.3469,3251.8704,3251.7437,3251.1501,3250.5674,3249.5769,3248.4961,3247.3289,3245.8145,3244.0437,3241.9573,3239.8813,3237.5894,3235.1013,3232.2002,3229.1108,3226.3328,3223.8245,3221.7388,3219.4673,3216.3835,3213.0762,3210.0125,3207.0183,3203.9727,3201.1978,3198.9233,3196.9597,3195.3850,3193.2661,3191.1074,3189.5129,3188.2793,3186.7441,3186.0938,3185.6841,3184.8896,3183.1538,3180.4402,3178.3821,3176.6091,3174.0637,3170.6484,3166.1724,3161.9956,3157.5005,3152.5105,3147.3567,3142.2249,3140.3765,3142.3640,3144.6594,3145.6860,3145.8394,3145.7576,3145.8188,3146.3870,3147.2578,3147.9507,3148.3777,3148.6775,3149.0286,3149.6782,3150.5972,3151.2456,3151.9395,3152.4937,3152.9216,3153.1746,3153.3748,3153.6243,3153.5745,3153.1738,3153.0691,3152.6995,3151.9268,3150.9204,3148.7861,3146.1890,3143.1594,3139.7163,3136.4978,3133.9026,3131.4558,3128.3062,3124.9873,3121.6816,3118.7263,3115.5227,3112.7302,3110.5354,3108.4844,3106.6318,3104.8635,3103.0107,3101.2996,3099.8479,3098.7300,3098.3120,3098.0164,3097.8135,3097.5120,3096.4539,3094.9895,3093.1650,3090.9954,3088.7471,3086.6299,3084.6465,3082.6228,3080.2051,3077.6992,3075.2671,3072.6052,3069.9531,3067.4954,3065.3796,3063.5366,3061.7581,3060.5769,3059.7544,3059.2771,3058.7395,3058.3955,3058.1938,3058.0698,3058.0557,3058.0100,3057.8110,3057.7317,3057.7803,3057.7246,3057.6562,3057.4812,3057.5962,3057.7625,3057.9211,3058.2739,3058.3245,3058.4714,3058.4810,3058.4587,3058.1423,3057.7695,3057.0361,3056.0703,3055.1138,3054.2021,3053.2307,3051.8669,3050.7537,3049.4751,3046.3760,3042.4724,3038.7476,3032.8555,3024.5505,3014.9102,3006.5566,3001.0540,2996.9695,2992.1836,2990.6890,2989.2947,2986.4026,2982.5049,2978.3296,2974.1409,2969.6362,2965.0645,2960.2161,2955.3723,2950.7107,2946.0203,2941.5476,2937.6577,2934.3418,2930.9492,2927.3179,2922.5845,2917.5911,2912.4597,2907.1772,2901.9438,2897.0850,2892.0486,2885.7896,2879.4895,2873.8198,2867.8879,2861.5679,2855.1006,2848.8962,2842.9871,2836.7837,2830.4893,2824.7026,2818.9390,2813.8096,2808.6580,2802.3330,2794.5198,2788.0078,2781.6040,2774.5483,2767.3110,2759.9065
3260.3484,3261.0466,3261.7803,3262.6416,3263.5110,3264.4895,3265.2571,3266.0356,3266.7280,3267.4941,3268.3374,3269.3704,3270.4980,3271.6370,3272.7449,3273.7742,3274.7461,3275.7935,3276.8391,3277.8723,3278.8901,3280.0754,3281.1951,3282.4426,3283.7380,3285.0217,3286.3132,3287.7625,3289.3083,3290.8035,3292.3823,3293.9348,3295.3562,3296.7673,3298.2185,3299.6960,3301.2646,3302.8477,3304.4160,3305.9788,3307.3052,3308.5552,3309.8140,3311.1416,3312.4436,3313.4082,3314.2402,3315.0981,3316.1436,3316.9866,3317.6621,3318.4502,3318.5393,3316.9702,3313.9170,3309.6680,3305.3777,3300.3289,3294.8867,3289.6138,3284.5786,3279.5125,3274.5068,3269.6384,3265.8098,3261.7046,3258.0811,3255.7825,3254.1763,3252.7295,3251.6489,3250.7754,3250.1775,3249.3835,3248.5649,3247.7219,3246.7478,3245.7261,3244.4858,3242.8789,3240.8699,3238.5054,3236.7410,3236.7751,3239.2473,3242.0759,3244.5298,3247.3755,3250.4141,3252.8645,3254.5879,3255.4988,3255.9067,3255.5393,3254.7104,3253.9683,3253.0535,3251.8638,3250.4824,3248.8496,3247.0950,3245.1899,3242.7981,3239.9041,3236.5337,3233.0212,3230.3516,3228.2332,3226.0562,3223.9575,3222.0667,3219.8479,3216.6636,3213.4705,3210.7573,3209.0391,3207.0203,3204.6189,3202.7488,3201.1282,3199.8826,3198.5818,3197.4417,3196.2676,3194.5474,3192.0991,3188.8787,3186.2751,3185.4612,3184.6858,3183.6089,3181.9316,3178.5950,3173.8369,3168.9971,3163.8774,3158.5608,3152.7695,3147.3113,3143.4412,3144.8660,3147.3833,3149.7603,3150.9595,3150.5420,3149.8193,3149.5737,3149.8796,3150.3784,3150.8311,3151.0859,3151.0652,3151.2466,3151.7966,3152.2432,3152.7893,3153.0947,3153.3984,3153.6536,3153.9773,3154.0247,3153.7683,3153.5471,3152.5413,3151.3325,3150.3284,3149.6299,3148.8879,3147.2319,3144.8008,3141.5725,3138.0991,3134.8186,3131.9561,3129.3921,3126.5854,3123.5491,3120.2522,3116.7871,3113.4922,3110.6938,3108.1821,3105.9292,3103.9170,3101.8965,3100.0005,3098.1091,3096.6296,3095.5422,3094.8176,3094.2715,3093.5376,3092.6807,3091.3679,3089.9360,3088.3401,3086.8665,3085.2080,3083.6050,3082.0498,3080.2380,3078.2034,3076.0930,3073.8225,3071.2107,3068.2605,3065.5769,3063.2532,3061.5576,3060.6482,3059.8391,3059.1589,3058.7024,3058.3818,3058.2000,3058.2175,3058.2715,3058.4431,3058.6052,3058.6238,3058.6477,3058.7959,3058.7024,3058.7776,3058.6692,3058.9399,3059.0999,3059.2556,3059.4529,3059.9446,3060.0481,3060.1362,3060.0947,3059.7983,3059.3762,3058.7209,3057.7634,3056.5630,3055.4009,3054.1638,3052.9663,3051.8003,3050.5359,3048.6235,3044.1499,3039.2268,3033.0618,3024.6023,3014.5498,3007.0210,3001.8855,2997.8767,2995.2327,2993.1221,2991.5991,2989.6003,2986.2427,2981.4187,2977.1919,2972.6233,2967.8562,2963.2305,2958.2617,2953.5259,2948.8665,2944.0618,2939.8350,2936.2920,2932.9734,2929.4663,2925.3169,2920.4377,2915.4663,2910.2131,2905.0334,2900.0891,2895.2029,2889.8687,2883.6782,2877.8062,2871.9087,2865.9255,2859.5388,2853.3987,2847.8081,2842.2163,2835.3528,2828.6946,2822.3525,2816.2488,2810.7466,2804.4324,2796.7332,2789.7568,2783.1367,2776.2703,2769.1416,2761.4529
3261.2700,3261.9927,3262.7976,3263.6599,3264.4409,3265.3020,3266.0505,3266.8064,3267.5239,3268.1672,3268.9333,3269.7637,3270.9292,3272.0239,3273.1260,3274.1870,3275.2751,3276.3330,3277.3770,3278.3738,3279.4783,3280.5718,3281.8098,3283.0854,3284.3855,3285.7241,3287.0425,3288.5474,3289.9714,3291.5398,3293.1230,3294.7573,3296.3020,3297.7708,3299.2224,3300.7971,3302.3723,3303.9280,3305.4216,3306.9036,3308.3916,3309.7024,3311.0254,3312.4070,3313.4485,3314.4019,3315.2463,3316.1194,3317.0376,3318.1646,3319.5186,3320.6174,3320.5256,3319.0381,3315.6335,3311.1895,3306.6812,3301.4673,3295.5271,3290.3123,3285.4814,3280.5811,3275.6128,3270.7825,3267.0359,3263.9788,3260.7031,3258.2800,3256.7893,3255.8076,3254.9473,3254.2656,3253.6406,3252.9353,3252.0005,3251.0095,3249.9023,3248.7239,3247.4238,3245.9709,3244.1067,3241.7498,3239.4121,3239.6968,3242.7449,3245.6772,3248.7749,3252.3223,3255.6836,3257.6997,3258.7029,3259.1750,3259.2642,3258.9917,3258.3350,3257.4893,3256.5144,3255.1179,3253.4583,3251.6582,3249.8213,3247.7119,3245.3259,3242.1487,3238.4023,3234.7288,3231.7981,3229.6003,3227.5815,3225.6443,3223.6758,3221.6406,3219.3008,3216.5796,3213.2468,3211.4160,3209.9106,3208.8740,3207.7207,3206.1348,3204.7002,3203.4900,3202.2014,3201.0786,3199.7800,3197.7698,3194.6760,3189.6411,3186.3655,3185.7966,3185.5833,3184.9026,3183.0376,3176.7544,3171.6731,3165.2017,3158.4539,3151.8267,3146.6282,3148.4060,3151.9766,3156.3674,3159.1235,3159.0522,3157.9343,3156.3293,3155.3301,3154.8264,3154.6956,3154.3826,3153.8765,3153.4695,3153.2532,3152.8860,3153.2729,3153.6453,3153.8918,3154.0498,3154.2188,3153.9731,3153.4043,3152.5542,3151.1934,3149.6265,3148.0959,3146.6541,3145.5225,3144.6619,3143.5479,3141.6697,3139.3735,3136.4321,3133.4314,3130.4470,3127.7588,3124.9739,3121.9839,3118.4082,3114.8625,3111.5581,3108.4900,3105.9094,3103.3433,3101.1208,3099.0330,3097.2234,3095.5181,3094.0037,3092.7158,3091.4309,3090.1279,3089.0740,3087.9263,3086.6758,3085.3408,3084.1514,3083.0779,3081.9136,3080.6248,3079.2031,3077.7471,3076.1790,3074.3682,3072.0898,3069.3892,3066.3994,3063.6646,3061.4199,3060.5452,3059.8782,3059.2632,3058.6609,3058.3123,3058.1941,3058.1650,3058.2329,3058.6042,3059.0688,3059.1772,3059.4812,3059.6641,3059.8323,3059.8167,3059.9326,3060.0891,3060.2563,3060.4219,3060.5662,3060.9299,3061.2805,3061.5847,3061.6885,3061.7939,3061.5632,3061.0977,3060.2959,3059.2161,3058.1357,3056.6621,3054.9148,3053.7952,3052.7891,3051.0745,3048.8328,3043.9600,3038.1777,3032.0967,3024.4146,3014.0471,3007.0486,3002.2278,2998.9023,2996.7212,2994.6572,2992.9211,2990.9690,2988.8308,2984.4907,2979.8191,2975.2900,2970.5059,2965.6975,2960.8154,2955.9399,2951.0945,2946.3813,2941.9216,2938.0752,2934.7751,2931.4172,2927.8184,2923.0398,2917.9834,2912.6882,2907.4299,2902.2571,2897.5276,2892.6152,2887.0815,2881.4963,2875.8101,2869.8335,2863.7012,2857.5171,2851.9546,2846.4182,2840.2312,2833.2549,2826.4219,2819.0518,2812.7490,2806.2878,2798.9216,2791.6184,2784.7434,2777.8877,2770.9424,2762.9536
3262.2625,3262.9822,3263.8743,3264.5752,3265.3501,3266.2500,3267.0410,3267.8242,3268.4358,3269.1921,3269.8643,3270.6418,3271.5212,3272.5444,3273.6182,3274.6638,3275.8196,3276.8254,3277.8733,3278.9219,3279.9741,3281.0120,3282.3210,3283.6877,3284.9570,3286.3252,3287.7385,3289.1614,3290.5713,3292.0540,3293.6318,3295.3364,3297.0254,3298.6470,3300.3357,3301.9048,3303.4805,3305.0430,3306.5164,3308.0828,3309.4944,3310.9143,3312.3318,3313.6230,3314.6731,3315.5605,3316.4619,3317.2371,3318.5542,3320.4160,3321.8965,3323.3474,3322.6111,3320.5327,3317.2737,3312.9331,3308.4358,3303.1841,3296.8237,3291.1843,3286.5137,3281.5398,3277.0044,3272.5059,3268.5591,3266.0793,3263.8025,3261.5906,3259.9836,3258.8989,3258.1079,3257.5293,3257.1538,3256.3933,3255.5178,3254.4182,3253.2891,3251.9192,3250.3657,3248.7458,3246.9143,3244.7344,3242.1978,3243.1018,3246.6179,3250.0679,3253.7388,3257.0264,3259.3840,3260.9185,3261.7825,3262.5151,3262.7312,3262.4468,3261.7629,3261.0015,3259.8687,3258.2244,3256.2319,3254.3613,3252.3174,3249.9805,3247.2886,3244.1228,3240.4268,3236.8196,3233.4700,3230.8342,3228.6182,3226.2358,3224.4795,3222.5298,3220.3259,3218.2178,3215.4878,3213.3591,3211.6333,3210.5811,3210.0879,3209.4993,3208.8110,3207.8232,3206.8062,3205.2383,3203.0962,3200.3379,3197.4929,3193.7585,3188.2188,3185.7615,3185.7834,3185.1306,3183.0974,3178.2104,3173.0342,3165.4905,3157.9333,3152.6536,3152.0913,3156.2163,3159.7271,3162.3511,3163.6182,3163.6218,3162.5520,3160.8582,3159.1665,3157.8926,3157.4272,3156.6550,3155.1628,3153.8074,3152.9900,3152.7666,3152.8853,3153.5034,3154.0557,3153.9590,3153.0691,3151.7302,3150.4795,3149.3726,3148.0344,3146.2227,3144.1821,3142.0928,3139.5918,3137.2598,3136.3787,3136.9077,3136.7168,3134.6670,3131.6985,3128.8057,3125.9734,3123.1294,3119.7659,3116.1709,3112.7913,3109.5806,3106.2402,3103.0603,3100.3608,3098.1064,3096.3174,3094.5715,3092.9536,3091.3525,3089.7896,3088.2722,3086.6121,3085.2925,3084.0947,3082.8250,3081.5918,3080.3506,3079.4539,3078.4585,3077.5857,3076.4775,3075.1653,3073.6655,3072.0845,3070.2458,3067.6025,3064.9253,3062.4382,3060.8779,3059.9775,3059.2878,3058.8062,3058.2354,3058.1650,3058.1650,3058.1516,3058.7029,3059.2952,3059.8740,3060.0603,3060.3455,3060.6150,3060.7517,3061.0037,3061.2554,3061.4109,3061.5730,3061.7390,3062.0505,3062.3765,3062.8279,3062.8506,3063.0583,3062.9385,3062.7158,3062.3516,3061.7329,3060.5276,3059.2761,3057.6592,3055.4204,3053.5132,3051.9155,3050.0859,3046.4500,3040.6726,3035.2944,3029.9229,3023.8464,3013.5278,3006.7483,3002.0088,2999.1487,2997.3169,2995.6013,2993.8665,2991.9761,2989.9124,2986.7087,2982.1350,2977.6577,2972.7688,2967.8423,2962.9741,2958.0579,2953.1646,2948.5305,2944.0806,2939.9343,2936.5325,2933.1455,2929.7871,2925.5591,2920.1753,2914.8408,2909.5630,2904.2278,2899.4756,2894.7903,2889.9380,2884.6318,2879.2261,2873.0955,2866.7505,2861.1670,2855.8279,2850.2329,2844.0581,2837.5452,2831.2261,2822.7708,2815.1182,2808.2610,2800.8892,2793.4524,2786.4639,2779.5156,2772.7761,2764.6719
3263.1907,3263.9866,3264.6526,3265.4485,3266.2285,3267.1194,3267.9727,3268.7405,3269.4294,3270.0505,3270.6768,3271.4504,3272.2373,3273.1504,3274.1108,3275.1604,3276.2627,3277.3157,3278.3044,3279.3767,3280.3967,3281.5693,3282.8955,3284.2222,3285.5364,3286.9272,3288.2676,3289.6465,3291.0596,3292.4773,3294.1323,3295.9250,3297.7622,3299.6365,3301.3911,3303.0188,3304.6501,3306.1619,3307.7334,3309.3179,3310.8098,3312.3459,3313.7629,3314.9375,3316.1035,3317.0015,3317.9692,3319.5864,3321.4385,3323.6951,3325.8484,3327.1904,3326.2935,3322.6614,3318.9658,3314.6794,3310.1680,3305.2378,3299.0349,3293.0024,3288.2397,3283.3240,3278.9219,3274.5933,3270.6592,3268.2581,3266.4177,3264.7480,3263.2080,3261.7937,3260.8267,3260.0486,3259.4934,3258.8777,3258.2791,3257.5906,3256.6201,3255.2886,3253.7686,3252.0278,3249.7332,3247.3171,3244.4597,3246.6697,3250.9319,3255.0730,3258.2202,3260.8750,3263.0300,3264.7151,3265.6990,3265.9897,3266.0103,3265.8147,3265.3657,3264.6709,3263.5525,3261.7153,3259.6072,3257.0308,3254.7400,3252.2722,3249.2544,3245.9136,3242.3296,3238.6292,3235.1484,3231.9172,3229.3123,3225.9824,3223.0388,3221.0908,3219.5547,3218.1921,3216.2996,3214.5811,3212.9519,3211.9597,3211.4136,3210.9429,3210.6824,3210.1909,3209.3245,3208.3469,3205.8894,3201.9456,3198.4414,3195.2661,3189.4375,3185.7424,3184.8523,3183.9934,3181.0320,3176.6550,3172.0205,3164.0195,3157.3677,3156.6138,3159.2358,3161.7793,3164.3362,3167.0151,3168.5254,3168.6960,3168.1226,3165.7021,3162.2712,3160.3057,3158.7119,3157.0452,3153.5991,3150.5356,3149.4956,3149.2551,3149.9197,3150.8867,3151.5488,3151.4458,3149.9292,3147.8870,3146.1328,3144.9590,3143.2439,3141.0288,3138.8643,3136.6250,3134.4792,3132.6816,3132.1992,3132.5391,3132.5459,3131.3870,3128.9373,3126.3059,3123.8396,3120.7476,3117.2234,3113.7341,3110.3298,3106.6975,3103.0691,3099.9299,3097.4705,3095.4766,3093.6692,3092.0146,3090.2844,3088.6289,3087.0183,3085.3308,3083.6924,3082.1196,3080.5623,3078.8582,3077.3186,3076.3926,3075.6011,3074.9233,3074.2446,3073.5156,3072.6411,3071.3188,3069.8328,3068.1052,3066.0300,3064.3188,3062.5833,3061.0935,3059.9104,3058.9517,3058.5188,3058.1323,3058.3066,3058.8010,3059.4480,3059.9729,3060.4702,3060.9380,3061.0796,3061.3010,3061.5972,3061.9968,3062.5649,3063.0554,3063.4016,3063.6448,3063.7478,3063.9851,3064.3289,3064.3030,3064.3557,3064.1750,3064.0391,3063.5615,3063.1050,3062.5554,3061.7515,3060.1956,3057.9885,3054.9897,3052.7241,3050.5249,3047.3589,3042.1367,3036.4646,3032.6357,3027.8860,3021.4172,3012.9509,3006.9788,3002.4209,2999.6702,2998.1790,2996.6494,2994.6924,2992.7700,2990.6580,2988.1304,2984.0022,2979.5435,2974.7749,2969.7563,2964.8406,2959.8223,2954.9819,2950.4871,2945.9263,2941.8892,2938.1831,2934.7771,2931.2207,2927.5173,2922.2036,2916.7998,2911.3145,2906.0034,2901.0837,2896.5222,2892.0823,2887.1350,2881.9683,2876.4136,2869.7739,2863.9685,2859.0750,2854.0029,2847.5774,2841.2568,2834.7595,2827.2261,2817.8818,2810.3418,2802.8481,2795.2854,2788.1033,2781.0796,2774.2974,2766.4153
3263.9617,3264.6685,3265.4365,3266.1592,3267.0071,3267.8254,3268.7322,3269.5552,3270.2163,3270.8667,3271.4927,3272.2461,3272.9495,3273.7097,3274.6724,3275.7354,3276.7029,3277.7292,3278.7017,3279.7397,3280.7866,3282.0962,3283.4380,3284.7869,3286.0972,3287.5242,3288.8474,3290.2468,3291.6577,3293.0491,3294.7922,3296.6650,3298.6582,3300.6235,3302.3931,3304.1201,3305.8054,3307.4790,3309.0576,3310.6377,3312.2146,3313.7761,3315.1951,3316.4390,3317.5667,3319.2454,3321.0479,3323.0493,3325.5435,3327.8357,3329.6082,3331.1411,3329.7219,3325.3599,3320.7249,3316.4907,3312.1631,3307.7009,3302.2739,3296.0039,3291.0059,3285.9592,3280.9849,3277.3538,3273.9297,3271.0496,3268.8450,3267.1245,3265.7476,3264.6206,3263.4292,3262.4001,3261.5942,3260.9128,3260.3674,3259.6497,3258.8340,3258.0664,3257.1472,3255.7659,3253.3464,3250.3416,3247.7649,3249.7009,3255.3853,3259.0237,3261.9175,3264.5759,3267.0110,3268.9246,3269.4373,3269.5522,3269.5281,3269.4287,3269.1323,3268.7014,3267.6204,3266.0447,3263.5925,3260.6465,3257.8088,3254.9792,3251.6729,3247.7786,3244.0400,3240.3489,3236.6377,3233.0745,3229.7363,3225.4302,3221.2874,3219.2485,3217.9290,3216.5334,3215.7141,3214.3757,3212.8896,3211.6157,3211.0134,3210.7808,3210.4343,3210.1152,3209.4451,3208.8464,3207.0322,3202.7681,3198.7178,3195.4861,3189.6855,3185.5544,3184.2812,3181.2842,3177.5808,3173.5225,3169.0347,3162.6265,3160.0623,3161.5784,3163.0920,3165.5479,3168.7341,3171.7314,3172.9314,3172.8660,3172.7256,3169.6069,3165.0203,3161.8682,3158.3516,3153.5928,3149.1304,3146.7698,3145.4231,3144.9702,3145.1497,3145.7732,3146.4297,3146.2253,3144.9016,3142.5940,3140.4077,3138.5876,3136.6777,3134.8538,3133.4197,3131.8647,3130.3218,3128.8535,3128.1089,3128.2830,3127.6697,3127.0225,3125.4683,3123.6033,3120.7944,3117.5005,3114.0547,3110.7798,3106.8774,3102.7820,3099.4578,3096.9177,3094.8328,3092.9272,3091.1655,3089.4685,3087.7576,3086.0229,3084.1511,3082.4851,3080.7327,3078.8521,3077.0229,3075.1396,3073.5537,3072.8679,3072.4434,3072.1104,3071.3884,3070.7595,3069.9832,3068.8284,3067.4070,3066.2446,3064.8696,3063.6479,3062.1941,3060.8289,3059.6050,3058.6062,3058.5056,3058.9343,3059.8352,3060.6265,3061.1497,3061.7639,3062.4519,3062.7520,3063.0745,3063.7512,3064.2434,3064.9709,3065.3147,3065.4446,3066.2156,3066.2048,3065.9868,3065.8792,3065.8926,3065.6511,3065.3870,3065.0791,3064.7510,3064.2083,3063.7869,3063.1509,3062.2400,3060.2415,3057.3264,3054.1943,3052.0312,3049.2798,3045.1494,3039.3640,3035.0322,3031.1926,3026.3953,3019.8877,3012.6833,3008.8855,3005.0276,3001.7036,2999.7058,2997.9431,2995.7747,2993.5220,2991.4050,2988.9756,2985.3452,2980.8633,2976.3000,2971.1729,2966.0857,2961.0625,2956.1738,2951.5999,2947.3555,2943.3367,2939.5718,2935.9280,2932.2673,2928.5447,2923.6770,2917.7659,2912.2634,2907.0686,2902.1248,2897.5784,2893.1499,2888.5322,2883.8503,2879.2131,2872.5957,2866.4451,2861.4524,2856.3228,2850.5474,2844.1772,2837.4124,2829.9141,2820.5659,2812.6206,2805.4158,2797.3921,2789.6089,2782.2490,2775.1697,2767.4963
3264.5107,3265.2051,3265.9819,3266.7625,3267.6023,3268.4771,3269.2959,3270.1023,3270.8110,3271.5237,3272.1379,3272.9216,3273.6055,3274.3101,3275.2773,3276.2568,3277.0823,3278.1057,3279.0808,3280.1069,3281.1311,3282.4783,3283.8938,3285.2898,3286.7012,3288.1223,3289.4426,3290.8472,3292.2559,3293.7388,3295.5974,3297.5723,3299.5823,3301.5479,3303.4419,3305.2346,3307.0825,3308.7012,3310.3323,3312.1045,3313.8596,3315.4138,3316.8369,3318.2561,3320.1545,3322.1848,3324.5881,3327.1587,3329.6675,3332.0769,3334.0808,3334.4712,3331.4292,3326.8564,3322.1753,3317.7766,3313.8960,3309.7104,3305.7371,3300.4221,3294.9231,3289.6138,3284.1851,3280.0527,3276.8633,3273.8230,3271.4072,3269.3064,3267.6106,3266.3975,3265.3933,3264.5334,3263.6917,3262.8777,3262.1841,3261.6128,3260.8372,3260.1057,3259.1746,3258.2427,3257.1255,3254.5010,3250.7549,3253.0742,3258.3743,3261.8945,3265.0557,3268.1731,3270.4602,3271.7822,3272.4678,3272.4919,3272.7224,3272.5518,3272.1353,3271.7083,3270.9956,3270.0693,3268.3523,3264.9080,3261.5481,3258.2542,3254.5542,3250.0701,3245.6829,3241.7788,3237.9436,3234.1772,3230.3464,3225.3501,3220.9495,3218.7681,3217.3369,3215.4937,3213.5830,3212.5784,3211.0129,3209.8838,3209.2314,3208.8755,3208.7397,3208.4111,3208.0056,3207.1067,3205.0894,3201.5552,3198.4883,3195.0596,3189.1575,3185.2756,3183.3015,3178.9163,3173.8472,3169.8665,3165.7979,3162.1414,3162.4062,3163.5811,3165.5454,3168.1013,3170.5261,3171.9277,3173.1108,3173.2214,3172.3508,3169.1309,3164.7507,3161.0215,3156.4053,3149.5383,3145.3127,3142.8501,3140.6606,3139.3005,3138.8784,3138.4617,3138.0317,3137.2480,3136.1406,3134.7312,3133.7166,3132.7192,3131.5034,3130.2690,3129.0881,3127.6443,3125.9570,3123.8083,3122.9297,3124.4565,3124.8154,3123.7805,3122.2979,3119.7305,3116.4727,3113.0024,3109.8196,3106.1006,3101.8982,3098.3545,3096.0208,3093.9878,3092.1431,3090.3386,3088.6318,3086.9456,3085.1089,3083.3831,3081.5322,3079.7080,3077.9165,3076.0171,3074.1357,3072.9851,3071.9468,3071.1250,3070.3989,3069.8137,3069.3918,3068.4983,3067.4136,3066.4485,3065.3550,3064.2949,3063.1833,3062.0701,3061.1572,3060.1555,3059.2712,3058.8550,3059.4629,3060.7439,3061.7783,3062.8818,3063.8088,3064.7581,3065.6897,3066.4014,3067.2727,3067.9314,3068.5518,3068.8101,3069.1877,3068.9844,3069.0894,3068.7874,3068.3396,3067.6975,3067.1653,3066.5745,3066.1047,3065.5085,3065.0308,3064.4766,3063.7053,3062.7849,3061.2227,3059.0110,3056.3796,3053.0054,3050.3967,3047.4954,3043.3813,3038.8914,3034.9646,3030.9609,3026.1755,3020.6042,3015.4641,3011.5728,3008.0483,3004.3000,3001.5608,2999.1321,2996.8367,2994.2688,2991.9167,2989.5022,2986.2231,2981.8884,2977.3635,2972.0952,2966.5134,2961.4998,2956.8591,2952.5083,2948.1306,2944.0112,2940.1567,2936.4893,2932.8386,2929.1895,2924.4612,2918.5208,2913.0098,2907.6047,2902.6536,2898.1992,2893.7761,2889.3333,2884.8604,2880.2712,2874.7324,2868.8955,2863.6270,2858.4111,2852.8772,2846.0176,2839.2668,2831.8867,2822.9556,2814.7593,2808.0928,2800.0044,2791.2957,2783.1890,2775.6499,2767.5835
3264.9517,3265.6934,3266.4851,3267.2683,3268.0786,3269.0374,3269.8220,3270.6018,3271.2920,3271.9531,3272.6567,3273.4175,3274.1343,3274.8970,3275.7822,3276.5947,3277.4849,3278.4302,3279.3755,3280.4009,3281.4531,3282.9729,3284.3896,3285.8079,3287.2952,3288.7954,3290.1201,3291.5425,3292.8608,3294.5942,3296.5894,3298.5317,3300.5869,3302.6326,3304.5510,3306.3484,3308.1914,3309.9233,3311.7708,3313.8169,3315.5581,3317.1562,3318.8499,3320.7659,3322.8926,3325.3914,3327.9956,3330.7695,3334.2688,3338.0586,3340.7976,3339.6497,3332.4414,3327.3259,3323.0342,3318.7292,3315.0002,3311.5657,3308.3171,3304.5884,3299.0269,3293.9309,3288.1721,3282.9031,3279.3286,3276.4307,3273.7217,3271.3281,3269.2649,3267.9316,3266.9053,3266.0593,3265.3708,3264.7080,3264.0232,3263.3506,3262.6221,3261.9451,3261.0515,3260.0759,3258.9302,3257.5789,3254.8342,3255.1262,3259.8560,3263.9351,3267.6755,3270.9458,3273.3511,3274.8547,3275.8301,3276.0273,3275.7288,3275.3882,3274.9395,3274.4260,3273.7791,3272.6790,3271.0474,3268.7095,3265.0066,3261.3198,3257.2800,3252.4021,3247.5618,3243.2207,3239.3174,3235.3716,3231.3804,3226.3435,3222.0161,3219.1968,3217.1479,3214.1982,3210.8469,3208.9846,3208.0464,3207.7236,3207.5422,3207.2141,3207.0750,3206.6079,3205.7505,3204.2861,3202.0962,3199.8984,3197.4358,3193.7441,3188.3589,3184.8733,3181.8970,3175.8643,3170.7339,3167.4482,3164.6033,3164.5356,3165.6860,3166.9949,3168.0464,3168.8167,3169.0657,3170.8464,3170.9241,3170.2996,3169.1196,3165.7261,3162.4319,3159.1418,3153.4429,3147.4961,3142.3240,3138.0615,3135.0217,3133.4592,3132.4099,3131.6440,3130.8477,3130.1638,3129.4514,3128.6145,3127.7700,3127.1799,3126.6577,3126.0354,3125.2732,3123.9905,3122.0754,3119.9783,3119.3848,3120.7427,3120.7649,3119.5125,3117.2041,3114.3352,3111.2200,3107.8538,3104.2034,3100.2864,3097.1096,3094.8259,3092.8040,3090.9492,3089.2847,3087.7959,3086.0554,3084.2336,3082.4736,3080.7380,3078.9436,3077.1287,3075.2449,3073.5779,3072.5029,3071.5864,3070.6831,3069.7822,3068.9873,3068.3003,3067.6074,3066.6841,3065.6201,3064.5083,3063.6458,3062.1987,3061.2751,3060.7310,3060.0989,3059.5959,3059.1897,3059.2170,3060.7297,3062.3682,3064.2375,3065.7637,3067.2498,3068.8330,3070.3069,3071.3823,3072.2410,3073.0027,3073.1707,3072.6729,3071.9900,3071.4531,3071.2317,3070.4883,3069.8904,3068.9966,3068.1064,3067.2996,3066.3755,3065.5776,3064.7388,3063.8169,3062.9373,3061.6360,3059.6877,3057.2500,3054.2427,3051.2549,3048.5859,3045.9883,3042.2319,3038.7402,3035.1304,3031.1548,3026.8450,3022.2786,3018.1667,3014.0237,3010.2739,3006.3533,3003.1616,3000.2314,2997.6516,2995.0310,2992.4607,2989.8423,2986.6914,2982.3950,2977.6338,2972.4495,2966.8284,2961.7236,2957.1572,2952.6206,2948.3877,2944.2500,2940.2156,2936.5813,2933.0898,2929.4900,2924.8992,2918.4202,2912.8394,2907.6567,2902.8567,2898.2917,2893.8589,2889.5796,2885.1709,2880.6504,2875.7947,2870.8015,2865.9043,2859.5911,2853.3616,2847.3911,2840.9280,2833.3462,2824.6638,2816.0935,2810.0698,2802.7637,2793.0391,2784.3186,2776.0857,2767.6125
